ncols         465
nrows         28
xllcorner     1036505.80581
yllcorner     6863719.19632
cellsize      2
NODATA_value  -9999
207.112 207.087 217.01 216.977 216.923 216.908 216.838 206.798 206.797 216.745 216.788 216.747 216.676 216.677 206.619 216.571 216.558 216.514 206.444 206.487 216.459 216.455 216.409 216.374 216.38 216.31 216.322 216.249 216.123 206.168 206.235 216.2 216.219 216.14 216.087 216.041 216.02 215.952 215.961 215.967 205.933 215.842 215.836 215.818 215.794 215.683 215.68 215.627 215.559 215.52 215.507 205.45 205.45 215.355 215.311 215.278 215.246 215.274 215.173 215.046 205.008 204.961 214.821 214.851 214.801 214.766 214.746 214.692 214.673 214.553 214.513 214.462 204.423 204.348 204.29 214.236 214.148 214.132 214.035 204.063 204.002 203.881 203.756 213.749 213.627 213.546 213.489 213.409 213.355 213.263 203.153 203.136 213.075 212.967 212.863 212.75 212.655 202.622 202.555 202.444 212.435 212.396 202.327 202.249 212.185 212.11 202.06 202.035 211.964 211.891 201.839 211.803 211.729 211.659 211.581 201.477 201.403 211.383 201.312 211.285 211.247 201.207 211.184 211.069 201.03 200.808 210.933 210.852 210.812 210.673 210.619 210.547 210.515 210.519 210.482 210.348 210.342 210.236 210.17 210.17 210.13 210.087 210.002 209.997 199.91 209.93 209.898 209.957 209.843 209.648 209.598 209.54 209.353 209.327 209.305 209.32 209.322 209.264 209.173 209.176 199.112 209.005 208.974 208.867 208.8 208.732 198.632 208.485 208.562 208.534 208.494 208.411 208.365 208.315 208.286 208.194 198.176 208.198 208.201 208.1 208.1 208.101 208.053 207.969 197.957 197.906 207.843 207.833 197.765 197.744 197.732 207.698 207.629 207.594 207.453 197.458 197.406 197.331 197.284 207.234 207.19 207.138 197.125 197.11 197.019 207.013 206.938 196.905 196.886 206.862 206.784 206.758 196.726 206.643 206.608 206.63 196.553 196.509 206.474 206.418 206.38 196.29 206.273 206.219 206.191 196.175 206.126 206.118 206.1 206.045 196.017 196.01 205.953 205.912 205.812 205.776 205.711 195.612 205.567 205.617 205.574 205.584 205.518 205.507 205.485 205.454 195.415 195.352 205.277 195.242 205.151 205.126 205.031 204.942 194.821 204.786 204.786 204.781 204.689 204.606 204.548 204.481 204.414 204.365 204.295 204.188 204.077 203.982 203.845 203.752 203.64 203.53 193.426 193.343 193.241 203.163 203.164 193.161 193.127 203.077 203.137 203.213 -9999 -9999 -9999 -9999 -9999 -9999 -9999 -9999 -9999 -9999 -9999 -9999 -9999 -9999 -9999 -9999 -9999 -9999 -9999 -9999 -9999 -9999 -9999 -9999 -9999 -9999 -9999 -9999 -9999 -9999 -9999 -9999 -9999 -9999 -9999 -9999 -9999 -9999 -9999 -9999 -9999 -9999 -9999 -9999 -9999 -9999 -9999 -9999 -9999 -9999 -9999 -9999 -9999 -9999 -9999 -9999 -9999 -9999 -9999 -9999 -9999 -9999 -9999 -9999 -9999 -9999 -9999 -9999 -9999 -9999 -9999 -9999 -9999 -9999 -9999 -9999 -9999 -9999 -9999 -9999 -9999 -9999 -9999 -9999 -9999 -9999 -9999 -9999 -9999 -9999 -9999 -9999 -9999 -9999 -9999 -9999 -9999 -9999 -9999 -9999 -9999 -9999 -9999 -9999 -9999 -9999 -9999 -9999 -9999 -9999 -9999 -9999 -9999 -9999 -9999 -9999 -9999 -9999 -9999 -9999 -9999 -9999 -9999 -9999 -9999 -9999 -9999 -9999 -9999 -9999 -9999 -9999 -9999 -9999 -9999 -9999 -9999 -9999 -9999 -9999 -9999 -9999 -9999 -9999 -9999 -9999 -9999 -9999 -9999 -9999 -9999 -9999 -9999 -9999 -9999 -9999 -9999 -9999 -9999 -9999 -9999 -9999 -9999 -9999 -9999 -9999 -9999 -9999 -9999 -9999 -9999 -9999 -9999 -9999 -9999 -9999 -9999 -9999 -9999 -9999 -9999 -9999 -9999
207.167 207.122 217.036 217.009 216.959 216.907 206.921 206.842 206.855 206.802 216.776 216.767 216.69 216.716 216.685 206.652 216.601 216.578 216.582 206.528 216.533 216.466 216.46 216.458 216.427 216.369 216.352 216.317 216.293 216.143 206.168 206.268 216.235 216.25 216.188 216.107 216.068 216.061 215.946 205.992 206.001 215.945 215.916 215.962 215.908 215.815 215.708 215.743 215.688 215.59 215.535 215.465 205.484 205.477 215.437 215.312 215.356 215.338 215.214 215.171 215.133 205.056 214.979 214.859 214.862 214.798 214.802 214.786 214.725 214.69 214.648 204.544 204.442 204.416 214.378 214.322 214.225 214.215 214.144 204.138 214.076 203.964 213.913 213.79 213.71 213.595 213.518 213.506 213.383 213.345 203.274 213.196 213.111 213.058 212.94 212.832 202.803 212.706 202.622 212.573 212.527 212.474 212.405 202.347 212.209 202.248 202.162 212.079 212.025 212.011 211.926 201.845 211.767 211.694 211.679 201.58 211.516 201.408 201.438 211.407 201.346 211.257 211.252 211.155 201.106 201.043 200.922 210.962 210.901 210.833 210.715 210.658 210.582 210.584 210.516 210.452 210.408 210.333 210.279 210.246 210.186 210.121 210.108 210.036 200.034 210.077 209.931 210.021 209.926 209.747 209.676 209.615 209.428 209.434 209.394 209.412 209.334 209.317 199.267 199.245 199.177 209.09 209.045 208.939 208.921 208.841 198.756 208.483 208.625 208.642 208.593 208.553 208.449 208.404 208.322 198.312 198.313 208.294 208.223 208.178 208.213 208.151 208.116 208.102 198.012 207.941 207.947 207.923 207.858 197.867 207.808 207.75 207.737 207.68 197.656 197.556 207.471 197.403 207.369 207.362 207.273 207.267 197.184 197.131 207.137 207.075 207.023 197.022 206.984 206.945 206.906 196.867 196.789 206.739 206.725 196.646 196.666 196.62 206.554 206.527 206.484 196.416 206.364 206.342 196.303 196.333 206.273 206.252 206.235 206.182 196.166 206.12 206.103 206.067 205.963 205.901 205.843 195.753 205.74 205.774 205.712 205.683 205.652 205.654 205.647 205.575 195.536 205.48 205.437 195.407 205.324 205.269 205.182 205.081 194.988 204.931 204.923 204.939 204.835 204.764 204.696 204.622 204.57 204.524 204.443 204.361 204.234 204.139 203.989 203.922 203.802 203.689 193.578 203.497 193.389 203.319 203.304 193.303 193.265 203.223 203.26 203.309 -9999 -9999 -9999 -9999 -9999 -9999 -9999 -9999 -9999 -9999 -9999 -9999 -9999 -9999 -9999 -9999 -9999 -9999 -9999 -9999 -9999 -9999 -9999 -9999 -9999 -9999 -9999 -9999 -9999 -9999 -9999 -9999 -9999 -9999 -9999 -9999 -9999 -9999 -9999 -9999 -9999 -9999 -9999 -9999 -9999 -9999 -9999 -9999 -9999 -9999 -9999 -9999 -9999 -9999 -9999 -9999 -9999 -9999 -9999 -9999 -9999 -9999 -9999 -9999 -9999 -9999 -9999 -9999 -9999 -9999 -9999 -9999 -9999 -9999 -9999 -9999 -9999 -9999 -9999 -9999 -9999 -9999 -9999 -9999 -9999 -9999 -9999 -9999 -9999 -9999 -9999 -9999 -9999 -9999 -9999 -9999 -9999 -9999 -9999 -9999 -9999 -9999 -9999 -9999 -9999 -9999 -9999 -9999 -9999 -9999 -9999 -9999 -9999 -9999 -9999 -9999 -9999 -9999 -9999 -9999 -9999 -9999 -9999 -9999 -9999 -9999 -9999 -9999 -9999 -9999 -9999 -9999 -9999 -9999 -9999 -9999 -9999 -9999 -9999 -9999 -9999 -9999 -9999 -9999 -9999 -9999 -9999 -9999 -9999 -9999 -9999 -9999 -9999 -9999 -9999 -9999 -9999 -9999 -9999 -9999 -9999 -9999 -9999 -9999 -9999 -9999 -9999 -9999 -9999 -9999 -9999 -9999 -9999 -9999 -9999 -9999 -9999 -9999 -9999 -9999 -9999 -9999 -9999
207.181 217.168 217.13 217.06 217.04 216.937 206.935 216.903 216.863 206.87 216.816 216.824 216.797 216.756 216.736 206.679 206.677 216.63 216.615 216.595 206.553 216.604 216.547 216.516 216.464 216.442 216.412 216.414 216.36 216.263 216.178 206.286 216.376 216.304 216.23 216.25 216.184 216.099 216.091 205.992 206.033 216.024 215.966 215.978 215.987 215.961 215.865 215.804 215.709 215.69 215.679 215.643 215.503 205.518 215.516 215.446 215.408 215.414 215.403 205.271 205.198 205.129 215.097 215.006 214.89 214.894 214.863 214.792 214.796 214.73 204.653 204.693 204.577 204.488 214.438 214.378 214.328 214.257 204.222 204.178 204.134 214.041 214.015 213.913 213.853 213.711 213.645 213.538 213.545 213.483 203.298 203.325 213.224 213.131 213.098 203.015 202.882 212.794 202.713 212.64 212.576 212.534 202.511 212.459 202.438 202.256 212.187 212.14 212.114 212.068 202.035 201.874 201.849 201.787 201.742 201.688 201.614 201.498 211.492 201.457 201.416 211.318 211.267 201.281 201.206 211.118 200.922 210.96 210.949 210.865 210.77 210.771 210.632 210.648 210.64 210.546 210.469 210.412 210.402 210.361 210.235 210.214 210.17 210.165 200.146 210.161 210.05 210.157 210.039 209.877 209.785 209.677 209.565 209.573 209.475 209.456 209.422 199.406 199.381 209.31 199.239 209.176 209.1 209.03 209.045 208.945 198.792 208.53 208.735 208.712 208.665 208.627 208.55 208.525 208.435 198.389 208.342 208.35 208.307 208.31 208.274 208.261 208.18 198.143 208.081 208.072 208.034 208.055 207.965 197.91 207.909 207.836 207.819 197.811 197.739 207.608 197.523 197.494 207.45 207.482 207.387 197.304 197.256 197.246 207.264 207.169 197.107 197.084 207.049 207.073 197.009 196.95 206.933 206.838 206.792 196.793 206.735 196.702 206.694 206.649 206.589 206.537 206.514 206.468 196.424 196.448 196.415 206.431 206.365 206.319 196.317 206.273 206.26 206.227 206.1 206.07 206.007 195.91 205.877 205.9 205.862 205.86 205.788 205.779 205.771 195.707 195.684 205.654 205.587 195.546 205.466 205.422 205.351 205.245 195.142 205.097 205.091 205.115 204.986 204.909 204.827 204.77 204.723 204.671 204.6 204.518 204.406 204.308 204.146 204.084 203.972 203.866 193.734 193.658 193.55 203.482 193.472 203.478 193.424 203.346 203.326 203.395 -9999 -9999 -9999 -9999 -9999 -9999 -9999 -9999 -9999 -9999 -9999 -9999 -9999 -9999 -9999 -9999 -9999 -9999 -9999 -9999 -9999 -9999 -9999 -9999 -9999 -9999 -9999 -9999 -9999 -9999 -9999 -9999 -9999 -9999 -9999 -9999 -9999 -9999 -9999 -9999 -9999 -9999 -9999 -9999 -9999 -9999 -9999 -9999 -9999 -9999 -9999 -9999 -9999 -9999 -9999 -9999 -9999 -9999 -9999 -9999 -9999 -9999 -9999 -9999 -9999 -9999 -9999 -9999 -9999 -9999 -9999 -9999 -9999 -9999 -9999 -9999 -9999 -9999 -9999 -9999 -9999 -9999 -9999 -9999 -9999 -9999 -9999 -9999 -9999 -9999 -9999 -9999 -9999 -9999 -9999 -9999 -9999 -9999 -9999 -9999 -9999 -9999 -9999 -9999 -9999 -9999 -9999 -9999 -9999 -9999 -9999 -9999 -9999 -9999 -9999 -9999 -9999 -9999 -9999 -9999 -9999 -9999 -9999 -9999 -9999 -9999 -9999 -9999 -9999 -9999 -9999 -9999 -9999 -9999 -9999 -9999 -9999 -9999 -9999 -9999 -9999 -9999 -9999 -9999 -9999 -9999 -9999 -9999 -9999 -9999 -9999 -9999 -9999 -9999 -9999 -9999 -9999 -9999 -9999 -9999 -9999 -9999 -9999 -9999 -9999 -9999 -9999 -9999 -9999 -9999 -9999 -9999 -9999 -9999 -9999 -9999 -9999 -9999 -9999 -9999 -9999 -9999 -9999
217.243 217.2 217.188 217.11 217.042 207.032 216.961 216.963 216.895 206.87 206.87 216.864 216.89 216.812 216.804 216.768 206.735 206.677 216.637 216.632 206.572 206.615 216.58 216.587 216.56 216.548 216.538 216.461 216.425 216.386 216.332 206.286 206.365 216.37 216.37 216.237 216.302 216.179 216.181 216.078 206.074 206.104 216.069 215.994 216.029 216.02 215.926 215.904 215.814 215.799 215.724 215.711 215.668 215.55 205.607 215.57 215.486 215.457 215.474 205.379 215.312 215.213 215.167 215.113 215.038 214.954 214.919 214.93 214.831 214.837 204.753 204.739 204.682 214.545 214.542 214.505 214.376 214.347 214.319 204.289 204.237 214.22 214.065 214.002 213.923 213.838 213.696 213.669 213.582 203.526 213.49 213.345 213.282 213.231 203.189 203.123 213.003 202.886 202.851 212.748 212.682 202.6 212.592 202.529 202.402 212.391 212.349 212.28 212.192 202.108 202.092 212.112 201.982 201.91 211.86 201.719 201.665 201.648 211.508 201.513 201.479 211.386 211.375 211.289 211.3 211.186 201.207 200.922 211.053 210.976 210.884 210.822 210.769 210.715 210.729 210.677 210.627 210.476 210.472 210.429 210.298 210.278 210.238 200.25 200.258 210.211 210.156 210.249 210.135 209.956 209.877 209.812 209.683 209.647 209.576 209.582 209.526 199.463 209.393 199.328 199.343 209.211 209.202 209.153 209.068 208.968 198.928 208.663 208.772 208.774 208.718 208.689 208.664 208.63 208.527 208.458 208.435 208.451 208.479 208.384 208.373 208.347 198.276 198.251 208.253 208.18 208.166 208.086 198.042 198.008 207.973 207.98 207.933 197.867 207.804 197.706 197.645 207.603 207.578 207.572 197.423 197.449 197.445 207.337 207.292 207.264 197.205 207.187 207.188 207.129 197.09 207.078 206.986 196.952 196.918 206.891 206.853 206.845 206.817 206.774 206.716 206.671 206.674 196.627 196.571 206.587 196.539 206.575 206.528 206.464 196.483 196.451 206.417 206.373 206.259 206.215 206.156 196.044 206.016 206.065 206.007 206.023 205.938 205.923 205.932 195.884 205.85 205.781 205.726 195.719 205.634 205.594 205.488 205.422 195.309 205.267 205.254 205.254 205.141 205.071 205 204.95 204.872 204.833 204.764 204.669 204.557 204.476 204.316 204.251 204.146 204.021 203.906 193.817 193.718 203.644 193.627 203.636 193.581 203.539 203.4 203.507 -9999 -9999 -9999 -9999 -9999 -9999 -9999 -9999 -9999 -9999 -9999 -9999 -9999 -9999 -9999 -9999 -9999 -9999 -9999 -9999 -9999 -9999 -9999 -9999 -9999 -9999 -9999 -9999 -9999 -9999 -9999 -9999 -9999 -9999 -9999 -9999 -9999 -9999 -9999 -9999 -9999 -9999 -9999 -9999 -9999 -9999 -9999 -9999 -9999 -9999 -9999 -9999 -9999 -9999 -9999 -9999 -9999 -9999 -9999 -9999 -9999 -9999 -9999 -9999 -9999 -9999 -9999 -9999 -9999 -9999 -9999 -9999 -9999 -9999 -9999 -9999 -9999 -9999 -9999 -9999 -9999 -9999 -9999 -9999 -9999 -9999 -9999 -9999 -9999 -9999 -9999 -9999 -9999 -9999 -9999 -9999 -9999 -9999 -9999 -9999 -9999 -9999 -9999 -9999 -9999 -9999 -9999 -9999 -9999 -9999 -9999 -9999 -9999 -9999 -9999 -9999 -9999 -9999 -9999 -9999 -9999 -9999 -9999 -9999 -9999 -9999 -9999 -9999 -9999 -9999 -9999 -9999 -9999 -9999 -9999 -9999 -9999 -9999 -9999 -9999 -9999 -9999 -9999 -9999 -9999 -9999 -9999 -9999 -9999 -9999 -9999 -9999 -9999 -9999 -9999 -9999 -9999 -9999 -9999 -9999 -9999 -9999 -9999 -9999 -9999 -9999 -9999 -9999 -9999 -9999 -9999 -9999 -9999 -9999 -9999 -9999 -9999 -9999 -9999 -9999 -9999 -9999 -9999
217.306 217.226 217.194 217.182 207.119 207.088 217.028 216.947 206.979 216.914 206.933 206.872 216.879 216.883 216.824 216.843 216.799 206.778 216.703 216.724 216.712 206.639 206.651 216.595 216.614 216.6 216.549 216.521 216.551 216.479 216.391 206.314 206.286 206.464 216.359 216.454 216.327 216.257 216.246 216.188 216.099 206.078 216.169 216.081 216.118 216.086 216.074 216.003 215.979 215.896 215.802 215.754 215.733 215.688 205.607 215.654 215.651 215.502 205.472 215.502 215.411 215.305 215.287 215.238 215.098 215.06 215.019 214.942 214.886 204.933 204.896 204.801 214.73 214.69 214.582 214.538 214.551 214.464 204.384 204.341 204.324 214.254 214.176 214.109 214.031 213.973 213.891 213.693 203.67 203.625 213.591 213.499 213.378 203.361 203.277 213.215 203.124 202.97 212.874 212.823 202.803 202.728 212.647 202.571 202.537 212.486 212.381 212.365 212.33 202.226 212.154 202.148 212.076 211.973 211.923 201.794 211.789 211.69 211.734 201.589 211.511 211.534 211.469 211.39 211.316 211.336 211.202 201.097 201.043 211.121 211.003 210.952 210.778 210.743 210.828 210.772 210.687 210.631 210.531 210.453 210.328 210.352 210.317 200.328 210.333 210.324 210.305 210.287 210.255 210.042 209.963 209.854 209.77 209.791 209.67 209.65 199.572 209.523 209.54 209.477 199.455 209.307 209.27 209.223 209.179 209.146 199.061 208.651 208.855 208.825 208.841 208.816 208.761 208.718 208.598 208.576 208.596 208.511 208.52 208.468 208.444 198.431 198.388 208.344 208.3 208.285 208.24 198.225 198.189 208.136 208.086 208.021 198.017 207.981 207.962 197.866 207.733 207.676 207.591 197.639 197.595 207.526 197.47 207.415 207.43 197.371 197.349 207.309 207.261 207.267 197.2 207.129 207.119 197.069 207.003 207.038 206.946 206.946 206.892 206.891 206.868 206.785 206.751 196.765 206.738 206.726 196.701 206.703 206.691 206.617 206.612 196.602 206.577 206.521 206.414 206.368 206.307 196.211 206.182 206.236 206.171 206.158 206.105 206.115 206.063 196.025 206.001 205.957 205.899 195.861 205.786 205.738 205.635 205.569 195.452 205.387 205.422 205.414 205.316 205.245 205.151 205.087 205.042 204.993 204.919 204.836 204.734 204.63 204.503 204.417 204.326 204.187 204.067 204.007 193.905 203.801 193.791 203.789 193.749 203.675 203.592 203.626 -9999 -9999 -9999 -9999 -9999 -9999 -9999 -9999 -9999 -9999 -9999 -9999 -9999 -9999 -9999 -9999 -9999 -9999 -9999 -9999 -9999 -9999 -9999 -9999 -9999 -9999 -9999 -9999 -9999 -9999 -9999 -9999 -9999 -9999 -9999 -9999 -9999 -9999 -9999 -9999 -9999 -9999 -9999 -9999 -9999 -9999 -9999 -9999 -9999 -9999 -9999 -9999 -9999 -9999 -9999 -9999 -9999 -9999 -9999 -9999 -9999 -9999 -9999 -9999 -9999 -9999 -9999 -9999 -9999 -9999 -9999 -9999 -9999 -9999 -9999 -9999 -9999 -9999 -9999 -9999 -9999 -9999 -9999 -9999 -9999 -9999 -9999 -9999 -9999 -9999 -9999 -9999 -9999 -9999 -9999 -9999 -9999 -9999 -9999 -9999 -9999 -9999 -9999 -9999 -9999 -9999 -9999 -9999 -9999 -9999 -9999 -9999 -9999 -9999 -9999 -9999 -9999 -9999 -9999 -9999 -9999 -9999 -9999 -9999 -9999 -9999 -9999 -9999 -9999 -9999 -9999 -9999 -9999 -9999 -9999 -9999 -9999 -9999 -9999 -9999 -9999 -9999 -9999 -9999 -9999 -9999 -9999 -9999 -9999 -9999 -9999 -9999 -9999 -9999 -9999 -9999 -9999 -9999 -9999 -9999 -9999 -9999 -9999 -9999 -9999 -9999 -9999 -9999 -9999 -9999 -9999 -9999 -9999 -9999 -9999 -9999 -9999 -9999 -9999 -9999 -9999 -9999 -9999
217.345 217.309 217.271 207.202 207.148 217.08 217.088 207.036 217.031 216.988 216.942 206.949 216.921 216.919 216.902 216.853 216.849 216.811 216.739 216.721 216.733 216.742 206.69 216.735 216.67 216.656 216.598 216.587 216.579 216.576 216.493 206.407 216.347 206.432 206.448 216.491 216.417 216.406 216.333 216.253 216.277 206.158 206.239 216.169 216.097 216.101 216.075 216.122 216.039 216.024 215.925 215.837 215.814 205.755 215.737 215.666 215.664 215.653 205.569 205.593 215.529 215.408 215.334 215.266 215.254 215.131 215.055 215.05 204.967 204.982 204.904 214.882 214.866 214.76 214.706 214.617 214.607 214.576 204.478 204.445 204.331 214.299 214.281 214.154 214.145 214.04 213.942 213.826 203.767 213.692 213.711 213.597 213.441 203.44 213.402 213.287 203.205 213.109 212.995 212.944 202.885 212.733 212.763 202.715 212.633 212.548 212.485 212.389 202.392 212.345 202.237 202.203 212.131 212.026 202.009 201.952 211.816 211.743 211.769 201.692 201.662 211.607 211.562 211.509 211.433 201.388 201.282 211.239 201.054 201.135 211.14 211.017 210.922 210.897 210.812 210.789 210.756 210.689 210.656 210.539 210.435 210.477 210.402 200.362 210.381 210.366 210.373 210.302 210.313 210.094 210.027 209.91 209.869 209.89 209.772 209.688 209.678 209.647 209.595 209.531 199.497 209.434 209.386 209.311 209.25 209.226 199.097 208.707 208.959 209.005 208.961 208.891 208.808 208.772 208.736 208.657 208.615 208.578 208.601 208.571 198.563 198.529 208.445 208.415 208.383 208.35 198.335 198.341 208.252 208.192 208.134 198.135 198.148 198.107 198.013 207.898 207.84 207.753 197.761 197.703 207.617 207.557 197.554 207.526 197.531 197.503 207.417 207.363 207.322 197.271 207.287 207.265 207.182 197.171 197.123 207.125 207.032 207.062 207.022 207.023 206.952 206.916 206.897 196.888 206.855 196.883 196.826 206.842 206.829 206.773 206.758 196.747 206.745 206.684 206.591 206.523 206.471 196.371 206.315 206.359 206.318 206.306 206.248 206.238 196.204 196.155 206.136 206.108 206.051 195.996 205.94 205.925 205.8 205.729 195.618 205.562 205.576 205.56 205.481 205.385 205.313 205.266 205.207 205.148 205.073 204.984 204.903 204.822 204.656 204.589 204.482 204.37 204.234 204.159 194.076 193.979 193.951 203.948 193.921 203.904 203.657 203.729 -9999 -9999 -9999 -9999 -9999 -9999 -9999 -9999 -9999 -9999 -9999 -9999 -9999 -9999 -9999 -9999 -9999 -9999 -9999 -9999 -9999 -9999 -9999 -9999 -9999 -9999 -9999 -9999 -9999 -9999 -9999 -9999 -9999 -9999 -9999 -9999 -9999 -9999 -9999 -9999 -9999 -9999 -9999 -9999 -9999 -9999 -9999 -9999 -9999 -9999 -9999 -9999 -9999 -9999 -9999 -9999 -9999 -9999 -9999 -9999 -9999 -9999 -9999 -9999 -9999 -9999 -9999 -9999 -9999 -9999 -9999 -9999 -9999 -9999 -9999 -9999 -9999 -9999 -9999 -9999 -9999 -9999 -9999 -9999 -9999 -9999 -9999 -9999 -9999 -9999 -9999 -9999 -9999 -9999 -9999 -9999 -9999 -9999 -9999 -9999 -9999 -9999 -9999 -9999 -9999 -9999 -9999 -9999 -9999 -9999 -9999 -9999 -9999 -9999 -9999 -9999 -9999 -9999 -9999 -9999 -9999 -9999 -9999 -9999 -9999 -9999 -9999 -9999 -9999 -9999 -9999 -9999 -9999 -9999 -9999 -9999 -9999 -9999 -9999 -9999 -9999 -9999 -9999 -9999 -9999 -9999 -9999 -9999 -9999 -9999 -9999 -9999 -9999 -9999 -9999 -9999 -9999 -9999 -9999 -9999 -9999 -9999 -9999 -9999 -9999 -9999 -9999 -9999 -9999 -9999 -9999 -9999 -9999 -9999 -9999 -9999 -9999 -9999 -9999 -9999 -9999 -9999 -9999
217.382 217.383 207.33 207.269 207.201 217.17 207.096 207.098 217.033 217.015 217.006 206.982 207.001 216.944 217.005 216.939 216.921 216.897 216.834 216.799 216.802 216.778 216.728 206.745 216.707 216.72 216.702 216.689 216.624 216.58 216.6 206.527 216.441 206.432 206.516 216.55 216.569 216.428 216.388 216.355 216.373 216.271 206.178 206.261 216.222 216.171 216.126 216.159 216.075 216.044 215.997 216.008 215.878 205.842 205.801 215.771 215.74 215.69 215.646 205.641 215.605 215.548 215.415 215.375 215.336 215.253 215.136 205.09 205.065 214.989 205.067 204.981 214.913 214.849 214.845 214.775 214.681 204.66 204.565 214.473 204.508 214.416 214.287 214.285 214.197 214.13 214.112 204.004 213.891 213.796 213.727 213.675 203.63 213.507 213.482 213.368 203.306 213.186 213.129 213.013 202.942 212.917 202.867 202.778 212.714 212.674 212.574 212.524 212.436 212.422 202.327 202.3 212.243 202.207 202.134 212.079 211.974 211.872 201.885 201.745 211.744 211.668 211.628 211.583 211.505 201.463 211.352 211.325 211.347 201.054 211.158 211.128 211.05 210.982 210.894 210.843 210.865 210.852 210.725 210.662 210.503 210.561 200.489 200.451 210.454 210.454 210.379 210.338 210.393 210.163 210.113 210.046 209.962 209.916 209.857 209.834 209.798 209.666 209.662 209.6 199.593 209.477 209.5 209.396 209.317 209.26 199.2 208.925 209.079 209.043 209.019 208.974 208.931 208.899 208.785 208.73 208.768 208.727 208.742 198.712 198.608 208.605 208.506 208.541 208.457 198.494 198.422 208.364 208.276 208.296 198.269 198.279 208.225 198.16 208.136 208.017 207.932 207.895 197.817 207.803 207.746 197.718 197.688 207.654 197.633 207.563 207.526 207.473 197.449 197.456 207.436 207.34 207.31 197.277 197.204 207.241 207.19 207.215 207.119 207.112 207.07 207.016 206.978 197.006 206.974 196.993 196.981 206.96 206.983 206.929 206.909 196.895 206.853 206.828 206.762 206.685 206.613 206.515 196.447 206.501 206.457 206.44 206.377 206.384 196.381 196.32 206.262 206.24 206.204 196.177 206.133 206.063 205.977 195.864 195.768 205.723 205.725 205.701 205.641 205.55 205.486 205.396 205.337 205.289 205.237 205.157 205.064 204.952 204.825 204.739 204.639 204.548 204.396 204.325 194.238 204.144 194.1 204.116 194.066 203.954 203.771 203.867 -9999 -9999 -9999 -9999 -9999 -9999 -9999 -9999 -9999 -9999 -9999 -9999 -9999 -9999 -9999 -9999 -9999 -9999 -9999 -9999 -9999 -9999 -9999 -9999 -9999 -9999 -9999 -9999 -9999 -9999 -9999 -9999 -9999 -9999 -9999 -9999 -9999 -9999 -9999 -9999 -9999 -9999 -9999 -9999 -9999 -9999 -9999 -9999 -9999 -9999 -9999 -9999 -9999 -9999 -9999 -9999 -9999 -9999 -9999 -9999 -9999 -9999 -9999 -9999 -9999 -9999 -9999 -9999 -9999 -9999 -9999 -9999 -9999 -9999 -9999 -9999 -9999 -9999 -9999 -9999 -9999 -9999 -9999 -9999 -9999 -9999 -9999 -9999 -9999 -9999 -9999 -9999 -9999 -9999 -9999 -9999 -9999 -9999 -9999 -9999 -9999 -9999 -9999 -9999 -9999 -9999 -9999 -9999 -9999 -9999 -9999 -9999 -9999 -9999 -9999 -9999 -9999 -9999 -9999 -9999 -9999 -9999 -9999 -9999 -9999 -9999 -9999 -9999 -9999 -9999 -9999 -9999 -9999 -9999 -9999 -9999 -9999 -9999 -9999 -9999 -9999 -9999 -9999 -9999 -9999 -9999 -9999 -9999 -9999 -9999 -9999 -9999 -9999 -9999 -9999 -9999 -9999 -9999 -9999 -9999 -9999 -9999 -9999 -9999 -9999 -9999 -9999 -9999 -9999 -9999 -9999 -9999 -9999 -9999 -9999 -9999 -9999 -9999 -9999 -9999 -9999 -9999 -9999
217.442 217.43 207.356 207.304 217.265 217.227 217.172 207.139 217.118 217.081 217.071 217.009 207.017 207.001 216.991 217.014 216.971 216.939 216.905 216.921 216.864 216.865 216.816 206.79 216.833 216.767 216.831 216.71 216.707 216.736 216.664 206.636 216.576 216.48 206.432 206.591 216.525 216.59 216.488 216.443 216.364 216.373 216.329 206.314 206.326 216.262 216.243 216.192 216.169 216.126 216.108 216.058 215.981 215.94 205.885 215.87 215.8 215.778 215.709 205.679 215.692 215.606 215.51 215.486 215.418 215.363 215.243 215.181 205.169 205.11 215.064 205.05 214.998 214.992 214.919 214.813 204.748 204.671 214.683 214.564 204.552 204.508 214.432 214.366 214.269 214.272 214.178 204.109 214.005 213.838 213.783 203.764 203.697 213.599 213.534 203.447 203.416 213.357 213.217 213.143 213.077 212.953 212.882 202.88 212.799 212.771 212.687 212.595 212.493 212.48 202.414 212.329 202.339 202.246 212.172 212.145 212.076 202.012 201.942 211.895 211.761 211.71 211.726 211.66 211.582 201.573 201.493 211.414 211.361 201.303 201.119 211.296 211.168 211.119 211.007 210.949 210.91 210.936 210.802 210.718 210.586 210.651 200.592 200.519 210.531 210.534 210.438 210.403 210.513 210.293 210.253 210.115 210.082 210.048 210.025 209.891 209.869 209.769 209.717 209.719 199.713 209.609 209.556 209.465 209.434 209.383 199.283 209.06 209.134 209.05 209.072 209.124 209.011 208.965 208.922 208.854 208.814 208.804 208.811 198.796 208.682 208.716 208.661 208.685 208.588 198.546 208.481 208.481 208.437 198.412 198.367 208.312 198.254 198.24 208.212 208.144 208.038 197.959 207.87 207.885 197.866 197.804 207.795 197.745 207.692 207.694 207.617 197.566 197.596 207.519 207.506 207.453 207.394 197.356 197.317 207.345 207.272 207.292 207.231 207.224 207.184 207.132 207.128 197.155 207.107 197.112 197.079 207.13 207.125 207.057 207.042 197.003 206.984 206.959 206.883 206.806 206.77 206.654 196.588 206.615 206.587 206.558 206.513 206.528 196.498 206.456 206.411 206.402 206.356 206.319 206.253 206.194 206.11 196.038 195.919 205.841 205.867 205.866 205.785 205.694 205.61 205.544 205.489 205.449 205.393 205.298 205.209 205.104 204.979 204.907 204.785 204.693 204.547 204.464 194.394 204.301 194.266 204.262 194.222 194.183 203.92 203.984 -9999 -9999 -9999 -9999 -9999 -9999 -9999 -9999 -9999 -9999 -9999 -9999 -9999 -9999 -9999 -9999 -9999 -9999 -9999 -9999 -9999 -9999 -9999 -9999 -9999 -9999 -9999 -9999 -9999 -9999 -9999 -9999 -9999 -9999 -9999 -9999 -9999 -9999 -9999 -9999 -9999 -9999 -9999 -9999 -9999 -9999 -9999 -9999 -9999 -9999 -9999 -9999 -9999 -9999 -9999 -9999 -9999 -9999 -9999 -9999 -9999 -9999 -9999 -9999 -9999 -9999 -9999 -9999 -9999 -9999 -9999 -9999 -9999 -9999 -9999 -9999 -9999 -9999 -9999 -9999 -9999 -9999 -9999 -9999 -9999 -9999 -9999 -9999 -9999 -9999 -9999 -9999 -9999 -9999 -9999 -9999 -9999 -9999 -9999 -9999 -9999 -9999 -9999 -9999 -9999 -9999 -9999 -9999 -9999 -9999 -9999 -9999 -9999 -9999 -9999 -9999 -9999 -9999 -9999 -9999 -9999 -9999 -9999 -9999 -9999 -9999 -9999 -9999 -9999 -9999 -9999 -9999 -9999 -9999 -9999 -9999 -9999 -9999 -9999 -9999 -9999 -9999 -9999 -9999 -9999 -9999 -9999 -9999 -9999 -9999 -9999 -9999 -9999 -9999 -9999 -9999 -9999 -9999 -9999 -9999 -9999 -9999 -9999 -9999 -9999 -9999 -9999 -9999 -9999 -9999 -9999 -9999 -9999 -9999 -9999 -9999 -9999 -9999 -9999 -9999 -9999 -9999 -9999
217.486 217.439 207.396 217.362 217.302 217.232 217.209 207.18 217.175 217.141 217.106 217.072 217.057 207.099 217.034 217.043 217.026 216.969 217.004 216.944 216.892 216.868 216.908 206.893 216.876 216.844 216.792 216.815 216.78 216.696 216.697 206.678 216.651 216.643 216.49 206.564 216.643 216.583 216.557 216.536 216.464 216.424 216.409 216.358 206.393 216.37 216.297 216.299 216.231 216.258 216.186 216.102 216.065 216.034 216.005 215.924 215.85 215.891 215.845 205.785 215.697 215.716 215.62 215.534 215.533 215.417 215.343 215.262 215.199 205.196 215.145 205.083 205.08 215.056 214.967 214.911 204.872 214.8 214.783 214.703 204.602 204.563 214.482 214.451 214.363 214.281 204.276 204.117 214.07 213.979 203.96 203.867 213.766 213.753 203.659 203.589 213.465 213.386 213.298 213.275 213.141 213.036 202.987 202.925 212.901 212.839 212.783 212.729 212.627 212.533 202.508 212.46 202.368 212.315 212.34 212.21 202.129 202.162 212.124 211.952 211.874 211.846 211.797 211.757 201.706 201.578 201.536 211.446 211.454 211.38 201.233 201.249 211.303 211.201 211.12 211.04 210.986 210.96 210.93 210.831 210.763 210.721 200.694 210.604 210.6 210.584 210.519 210.464 210.547 210.366 210.284 210.236 210.205 210.128 210.05 209.991 209.961 209.862 209.875 209.842 199.761 209.662 209.607 209.626 209.541 209.491 199.382 209.174 209.203 209.22 209.199 209.161 209.058 209.066 209.002 208.996 208.899 208.918 198.898 198.87 208.848 208.77 208.749 208.711 198.627 208.623 208.625 208.573 208.55 198.487 208.442 208.4 198.409 198.309 208.318 208.21 198.115 198.08 208.073 207.998 197.958 207.892 197.851 207.814 207.833 207.799 197.773 197.678 207.64 207.573 207.597 207.584 207.506 197.497 197.444 207.403 207.376 207.42 207.353 207.329 207.268 207.283 207.223 197.225 207.223 197.226 207.219 207.25 207.222 207.181 197.159 197.151 207.127 207.071 207.048 206.938 206.907 206.787 196.715 206.741 206.729 206.711 206.648 196.627 196.627 206.585 206.552 206.531 206.454 206.422 206.4 206.371 206.253 196.194 196.073 205.99 206.007 205.995 205.921 205.809 205.744 205.698 205.624 205.58 205.524 205.448 205.355 205.252 205.138 205.049 204.933 204.836 204.702 204.602 194.527 204.437 194.426 204.404 204.367 194.318 204.038 204.113 -9999 -9999 -9999 -9999 -9999 -9999 -9999 -9999 -9999 -9999 -9999 -9999 -9999 -9999 -9999 -9999 -9999 -9999 -9999 -9999 -9999 -9999 -9999 -9999 -9999 -9999 -9999 -9999 -9999 -9999 -9999 -9999 -9999 -9999 -9999 -9999 -9999 -9999 -9999 -9999 -9999 -9999 -9999 -9999 -9999 -9999 -9999 -9999 -9999 -9999 -9999 -9999 -9999 -9999 -9999 -9999 -9999 -9999 -9999 -9999 -9999 -9999 -9999 -9999 -9999 -9999 -9999 -9999 -9999 -9999 -9999 -9999 -9999 -9999 -9999 -9999 -9999 -9999 -9999 -9999 -9999 -9999 -9999 -9999 -9999 -9999 -9999 -9999 -9999 -9999 -9999 -9999 -9999 -9999 -9999 -9999 -9999 -9999 -9999 -9999 -9999 -9999 -9999 -9999 -9999 -9999 -9999 -9999 -9999 -9999 -9999 -9999 -9999 -9999 -9999 -9999 -9999 -9999 -9999 -9999 -9999 -9999 -9999 -9999 -9999 -9999 -9999 -9999 -9999 -9999 -9999 -9999 -9999 -9999 -9999 -9999 -9999 -9999 -9999 -9999 -9999 -9999 -9999 -9999 -9999 -9999 -9999 -9999 -9999 -9999 -9999 -9999 -9999 -9999 -9999 -9999 -9999 -9999 -9999 -9999 -9999 -9999 -9999 -9999 -9999 -9999 -9999 -9999 -9999 -9999 -9999 -9999 -9999 -9999 -9999 -9999 -9999 -9999 -9999 -9999 -9999 -9999 -9999
217.535 207.507 217.443 217.402 217.391 217.329 207.286 217.243 217.176 217.207 217.144 217.161 217.095 207.099 207.136 217.096 217.131 217.085 217.039 216.995 216.984 216.942 216.953 216.929 206.893 216.901 216.881 216.81 216.845 216.792 216.768 206.752 206.748 216.642 216.603 216.523 206.655 216.692 216.672 216.501 216.592 216.511 216.473 216.475 206.402 206.474 216.398 216.356 216.376 216.336 216.258 216.201 216.132 216.101 216.052 216.033 215.964 215.906 205.909 215.925 215.824 215.735 215.721 215.637 215.538 215.521 215.462 215.333 215.282 205.228 215.209 205.234 205.135 215.112 215.095 204.979 214.97 214.89 214.833 204.794 204.677 214.658 214.667 214.536 214.475 204.42 204.316 214.297 214.203 204.068 203.998 213.955 213.889 213.848 203.786 213.588 213.586 213.554 213.354 213.355 213.28 213.208 203.11 213.006 212.965 212.846 212.836 212.791 212.659 212.649 202.545 212.525 202.455 212.431 212.383 202.317 202.236 212.199 212.132 212.078 212.028 211.941 201.871 201.84 201.765 201.753 211.665 211.534 211.496 211.46 211.397 201.233 211.373 211.327 211.229 211.176 211.102 211.016 210.992 210.977 210.813 210.809 200.757 210.755 210.684 210.612 210.575 210.51 210.663 210.472 210.383 210.344 210.272 210.172 210.153 210.094 210.065 209.936 209.917 209.922 199.864 209.779 209.756 209.67 209.662 209.599 199.492 209.311 209.325 209.281 209.256 209.234 209.24 209.184 209.066 209.021 208.979 209.001 208.979 208.985 208.889 208.876 208.843 198.816 198.774 208.721 208.702 208.68 198.586 208.58 208.579 208.536 208.477 208.416 208.359 198.331 198.254 208.155 208.13 198.117 208.023 208.009 197.995 207.94 207.924 207.894 197.817 207.789 207.697 207.707 207.738 207.7 207.626 197.572 207.509 207.535 207.481 207.482 207.437 207.445 207.409 207.346 197.324 197.362 207.344 197.318 207.289 207.296 207.317 207.312 207.273 197.235 207.211 207.189 207.147 207.074 207.042 196.906 196.831 206.849 206.815 206.793 206.753 196.745 206.754 206.686 206.636 206.658 206.601 206.572 206.517 206.47 206.363 206.3 196.19 206.089 206.113 206.103 206.047 205.95 205.873 205.801 205.752 205.709 205.656 205.57 205.492 205.381 205.258 205.188 205.082 204.978 204.834 204.729 194.657 194.581 194.564 204.536 204.508 194.456 204.124 204.248 -9999 -9999 -9999 -9999 -9999 -9999 -9999 -9999 -9999 -9999 -9999 -9999 -9999 -9999 -9999 -9999 -9999 -9999 -9999 -9999 -9999 -9999 -9999 -9999 -9999 -9999 -9999 -9999 -9999 -9999 -9999 -9999 -9999 -9999 -9999 -9999 -9999 -9999 -9999 -9999 -9999 -9999 -9999 -9999 -9999 -9999 -9999 -9999 -9999 -9999 -9999 -9999 -9999 -9999 -9999 -9999 -9999 -9999 -9999 -9999 -9999 -9999 -9999 -9999 -9999 -9999 -9999 -9999 -9999 -9999 -9999 -9999 -9999 -9999 -9999 -9999 -9999 -9999 -9999 -9999 -9999 -9999 -9999 -9999 -9999 -9999 -9999 -9999 -9999 -9999 -9999 -9999 -9999 -9999 -9999 -9999 -9999 -9999 -9999 -9999 -9999 -9999 -9999 -9999 -9999 -9999 -9999 -9999 -9999 -9999 -9999 -9999 -9999 -9999 -9999 -9999 -9999 -9999 -9999 -9999 -9999 -9999 -9999 -9999 -9999 -9999 -9999 -9999 -9999 -9999 -9999 -9999 -9999 -9999 -9999 -9999 -9999 -9999 -9999 -9999 -9999 -9999 -9999 -9999 -9999 -9999 -9999 -9999 -9999 -9999 -9999 -9999 -9999 -9999 -9999 -9999 -9999 -9999 -9999 -9999 -9999 -9999 -9999 -9999 -9999 -9999 -9999 -9999 -9999 -9999 -9999 -9999 -9999 -9999 -9999 -9999 -9999 -9999 -9999 -9999 -9999 -9999 -9999
207.615 207.551 217.481 217.47 217.447 207.411 207.344 217.294 217.242 217.24 217.212 217.189 217.155 217.129 207.151 207.149 217.12 217.168 217.085 217.082 217.094 217.041 217 216.988 206.944 206.921 216.942 216.875 216.862 216.893 216.849 216.817 206.816 206.792 216.718 216.649 206.655 206.669 216.709 216.745 216.598 216.585 216.575 216.536 216.457 206.512 206.495 216.505 216.407 216.396 216.346 216.283 216.245 216.205 216.104 216.105 216.057 206.029 205.929 215.942 215.893 215.831 215.806 215.736 215.673 215.616 215.522 215.464 205.381 215.349 215.261 205.209 205.208 215.167 205.171 205.104 215.012 214.958 214.868 204.873 214.825 214.731 214.66 214.662 214.551 204.471 214.455 214.391 204.278 204.217 214.128 214.056 213.978 213.929 203.815 213.817 213.698 213.606 213.53 213.418 213.37 203.261 203.214 213.153 213.082 212.975 212.92 212.854 212.824 212.702 202.686 202.662 212.589 212.463 212.468 202.389 212.345 212.288 212.268 212.19 212.089 202.016 201.95 201.858 201.789 201.784 211.756 211.691 211.606 211.569 211.507 201.486 201.25 211.38 211.31 211.304 211.192 211.182 211.101 211.078 210.929 210.85 200.856 210.808 210.762 210.77 210.644 210.555 210.742 210.643 210.489 210.385 210.334 210.295 210.252 210.126 210.103 210.031 209.997 200.015 199.98 209.867 209.837 209.775 209.742 209.655 199.596 209.436 209.404 209.375 209.355 209.339 209.277 209.218 209.14 209.102 209.062 209.123 209.026 209.022 208.993 208.973 198.917 199.009 208.866 208.803 208.731 198.723 208.751 208.701 208.632 208.581 208.536 208.466 198.489 198.428 208.294 208.226 198.194 198.177 208.189 208.155 198.093 208.041 208.046 197.933 207.915 207.909 207.859 207.854 207.831 207.755 197.645 197.651 207.609 207.678 207.573 207.595 207.545 207.507 207.472 197.437 197.431 207.437 207.412 197.387 207.384 207.423 207.443 207.383 207.345 197.332 207.34 207.296 207.201 207.183 207.128 197.033 196.953 206.916 206.905 206.919 206.864 196.854 206.808 206.779 206.766 206.764 206.704 206.665 206.62 206.591 206.485 206.4 196.285 206.173 206.213 206.234 206.162 206.067 206.005 205.92 205.874 205.827 205.772 205.657 205.598 205.496 205.365 205.316 205.19 205.093 204.956 204.848 194.772 194.689 204.651 204.648 204.62 194.591 204.252 204.366 -9999 -9999 -9999 -9999 -9999 -9999 -9999 -9999 -9999 -9999 -9999 -9999 -9999 -9999 -9999 -9999 -9999 -9999 -9999 -9999 -9999 -9999 -9999 -9999 -9999 -9999 -9999 -9999 -9999 -9999 -9999 -9999 -9999 -9999 -9999 -9999 -9999 -9999 -9999 -9999 -9999 -9999 -9999 -9999 -9999 -9999 -9999 -9999 -9999 -9999 -9999 -9999 -9999 -9999 -9999 -9999 -9999 -9999 -9999 -9999 -9999 -9999 -9999 -9999 -9999 -9999 -9999 -9999 -9999 -9999 -9999 -9999 -9999 -9999 -9999 -9999 -9999 -9999 -9999 -9999 -9999 -9999 -9999 -9999 -9999 -9999 -9999 -9999 -9999 -9999 -9999 -9999 -9999 -9999 -9999 -9999 -9999 -9999 -9999 -9999 -9999 -9999 -9999 -9999 -9999 -9999 -9999 -9999 -9999 -9999 -9999 -9999 -9999 -9999 -9999 -9999 -9999 -9999 -9999 -9999 -9999 -9999 -9999 -9999 -9999 -9999 -9999 -9999 -9999 -9999 -9999 -9999 -9999 -9999 -9999 -9999 -9999 -9999 -9999 -9999 -9999 -9999 -9999 -9999 -9999 -9999 -9999 -9999 -9999 -9999 -9999 -9999 -9999 -9999 -9999 -9999 -9999 -9999 -9999 -9999 -9999 -9999 -9999 -9999 -9999 -9999 -9999 -9999 -9999 -9999 -9999 -9999 -9999 -9999 -9999 -9999 -9999 -9999 -9999 -9999 -9999 -9999 -9999
217.655 217.589 217.581 217.498 217.472 207.413 207.393 217.35 217.324 217.279 217.25 217.241 217.22 217.225 207.182 207.196 217.168 217.186 217.199 217.105 217.121 217.089 217.081 207.049 207.051 207.04 216.98 217.004 216.914 216.886 216.908 216.846 206.857 216.858 216.798 216.742 216.681 206.69 206.774 216.761 216.713 216.66 216.631 216.631 216.549 216.5 206.563 206.516 216.454 216.497 216.459 216.459 216.332 216.335 216.209 216.142 216.115 206.126 216.067 216.022 215.902 215.945 215.86 215.832 215.758 215.679 215.637 205.596 205.484 215.42 215.326 205.365 215.271 215.201 205.206 215.193 215.1 215.028 205.013 204.934 214.841 214.82 214.74 214.714 204.647 214.581 214.525 214.43 204.344 214.328 214.169 214.138 214.015 204.035 203.984 213.849 213.78 213.728 213.66 213.548 203.504 203.363 213.247 213.232 213.168 213.072 213.024 212.928 212.866 202.826 202.757 202.709 212.687 212.578 202.517 202.526 212.424 212.344 212.332 212.21 202.191 202.117 202.077 211.969 201.908 201.872 211.834 211.774 211.685 211.646 211.623 201.499 201.423 201.305 211.423 211.327 211.315 211.197 211.155 211.151 211.009 210.966 200.967 210.858 210.84 210.827 210.795 210.672 210.849 210.695 210.534 210.529 210.48 210.321 210.337 210.25 210.163 210.107 200.162 200.081 210.069 209.94 209.917 209.898 209.85 209.768 199.702 209.487 209.458 209.513 209.456 209.396 209.335 209.321 209.242 209.213 209.173 209.145 209.086 209.094 209.043 199.081 199.049 209.004 208.949 208.889 208.863 198.893 208.825 208.783 208.713 208.703 208.714 208.604 198.574 208.502 208.398 198.389 198.369 208.298 208.267 208.212 198.182 208.136 198.114 198.099 208.068 207.944 207.955 207.903 207.872 197.861 197.823 197.803 207.67 207.693 207.692 207.672 207.636 207.641 207.594 197.522 207.509 207.493 207.479 197.488 207.446 207.499 207.504 207.463 197.437 197.434 207.405 207.368 207.324 207.264 207.21 207.099 197.016 207.026 207.013 207.009 196.969 196.96 206.933 206.895 206.85 206.839 206.799 206.779 206.735 206.684 206.581 206.481 196.398 206.306 206.306 206.292 206.248 206.169 206.113 206.032 205.97 205.904 205.857 205.792 205.725 205.613 205.47 205.418 205.299 205.208 205.064 204.956 194.868 194.795 204.769 204.764 204.74 194.68 204.338 204.485 -9999 -9999 -9999 -9999 -9999 -9999 -9999 -9999 -9999 -9999 -9999 -9999 -9999 -9999 -9999 -9999 -9999 -9999 -9999 -9999 -9999 -9999 -9999 -9999 -9999 -9999 -9999 -9999 -9999 -9999 -9999 -9999 -9999 -9999 -9999 -9999 -9999 -9999 -9999 -9999 -9999 -9999 -9999 -9999 -9999 -9999 -9999 -9999 -9999 -9999 -9999 -9999 -9999 -9999 -9999 -9999 -9999 -9999 -9999 -9999 -9999 -9999 -9999 -9999 -9999 -9999 -9999 -9999 -9999 -9999 -9999 -9999 -9999 -9999 -9999 -9999 -9999 -9999 -9999 -9999 -9999 -9999 -9999 -9999 -9999 -9999 -9999 -9999 -9999 -9999 -9999 -9999 -9999 -9999 -9999 -9999 -9999 -9999 -9999 -9999 -9999 -9999 -9999 -9999 -9999 -9999 -9999 -9999 -9999 -9999 -9999 -9999 -9999 -9999 -9999 -9999 -9999 -9999 -9999 -9999 -9999 -9999 -9999 -9999 -9999 -9999 -9999 -9999 -9999 -9999 -9999 -9999 -9999 -9999 -9999 -9999 -9999 -9999 -9999 -9999 -9999 -9999 -9999 -9999 -9999 -9999 -9999 -9999 -9999 -9999 -9999 -9999 -9999 -9999 -9999 -9999 -9999 -9999 -9999 -9999 -9999 -9999 -9999 -9999 -9999 -9999 -9999 -9999 -9999 -9999 -9999 -9999 -9999 -9999 -9999 -9999 -9999 -9999 -9999 -9999 -9999 -9999 -9999
207.721 217.653 217.616 217.592 207.506 207.485 217.477 217.428 217.368 217.334 217.255 217.289 217.286 217.346 207.2 207.211 207.263 217.238 217.264 217.207 217.179 217.165 217.139 217.07 207.075 217.06 207.045 217.015 217.013 216.992 216.994 206.944 216.917 216.867 216.88 216.812 216.793 216.646 206.801 216.82 216.826 216.711 216.711 216.705 216.687 216.616 216.528 206.636 216.565 216.523 216.522 216.444 216.425 216.393 216.352 216.298 206.18 206.126 216.118 216.119 216.042 215.986 216.015 215.883 215.817 215.81 205.756 205.644 215.573 215.543 205.456 205.374 215.368 215.294 205.261 205.263 215.186 215.158 205.073 205.008 214.964 214.924 214.841 204.8 204.755 214.663 214.58 204.574 214.509 214.395 214.329 214.182 204.19 204.124 213.981 214.002 213.91 213.805 213.765 203.663 203.54 213.505 213.41 213.337 213.203 213.179 213.089 213.078 203.021 202.911 202.817 212.776 212.775 202.715 202.63 212.514 212.545 212.505 212.499 212.409 202.293 212.242 212.179 212.043 201.998 211.955 211.891 211.804 211.778 211.729 211.713 201.591 211.581 201.319 211.467 211.448 211.343 211.328 211.286 211.251 211.066 211.089 201.002 211.001 210.982 210.966 210.915 210.75 210.916 210.786 210.666 210.613 210.52 210.373 210.353 210.33 210.314 210.256 200.239 210.111 210.135 210.059 210.087 209.965 209.9 209.793 199.793 209.655 209.57 209.581 209.508 209.507 209.454 209.391 209.385 209.264 209.211 209.228 209.229 209.236 209.192 199.155 209.111 209.112 209.05 209.061 209.008 198.928 208.876 208.878 208.836 208.811 208.799 198.707 208.639 208.612 198.528 198.453 208.419 208.354 208.325 198.326 208.3 198.254 198.285 208.204 208.135 208.073 208.03 208.018 197.996 198.007 207.898 197.867 207.761 207.812 207.75 207.786 207.74 207.749 207.696 197.62 207.586 207.589 207.584 197.563 207.527 207.556 207.574 197.559 197.539 207.484 207.482 207.469 207.427 207.347 207.308 197.177 197.098 207.101 207.105 197.087 207.028 207.032 206.996 206.966 206.927 206.925 206.874 206.854 206.792 206.752 206.653 206.593 196.503 206.371 206.396 206.369 206.348 206.273 206.207 206.119 206.037 206 205.968 205.89 205.798 205.71 205.57 205.514 205.394 205.309 205.163 195.047 194.974 194.893 204.864 204.856 204.825 194.784 204.433 204.6 -9999 -9999 -9999 -9999 -9999 -9999 -9999 -9999 -9999 -9999 -9999 -9999 -9999 -9999 -9999 -9999 -9999 -9999 -9999 -9999 -9999 -9999 -9999 -9999 -9999 -9999 -9999 -9999 -9999 -9999 -9999 -9999 -9999 -9999 -9999 -9999 -9999 -9999 -9999 -9999 -9999 -9999 -9999 -9999 -9999 -9999 -9999 -9999 -9999 -9999 -9999 -9999 -9999 -9999 -9999 -9999 -9999 -9999 -9999 -9999 -9999 -9999 -9999 -9999 -9999 -9999 -9999 -9999 -9999 -9999 -9999 -9999 -9999 -9999 -9999 -9999 -9999 -9999 -9999 -9999 -9999 -9999 -9999 -9999 -9999 -9999 -9999 -9999 -9999 -9999 -9999 -9999 -9999 -9999 -9999 -9999 -9999 -9999 -9999 -9999 -9999 -9999 -9999 -9999 -9999 -9999 -9999 -9999 -9999 -9999 -9999 -9999 -9999 -9999 -9999 -9999 -9999 -9999 -9999 -9999 -9999 -9999 -9999 -9999 -9999 -9999 -9999 -9999 -9999 -9999 -9999 -9999 -9999 -9999 -9999 -9999 -9999 -9999 -9999 -9999 -9999 -9999 -9999 -9999 -9999 -9999 -9999 -9999 -9999 -9999 -9999 -9999 -9999 -9999 -9999 -9999 -9999 -9999 -9999 -9999 -9999 -9999 -9999 -9999 -9999 -9999 -9999 -9999 -9999 -9999 -9999 -9999 -9999 -9999 -9999 -9999 -9999 -9999 -9999 -9999 -9999 -9999 -9999
217.787 217.697 217.66 217.602 217.565 207.55 217.526 217.5 217.433 217.407 217.349 217.326 217.325 207.29 207.275 217.257 207.282 207.277 217.26 217.292 217.272 217.239 217.209 217.178 217.122 217.145 207.064 207.058 217.043 217.029 217.062 207.056 206.999 216.98 216.941 216.928 216.901 216.799 206.801 206.866 216.87 216.887 216.776 216.739 216.737 216.694 216.647 216.629 216.697 216.61 216.553 216.541 216.491 216.488 216.429 216.368 206.315 206.255 216.185 216.203 216.127 216.083 216.015 215.984 215.942 215.869 205.828 215.755 215.693 205.579 205.52 215.446 215.454 215.399 215.356 205.344 215.347 215.192 205.098 215.098 215.045 215.028 204.931 204.866 214.772 214.71 204.685 204.594 214.575 214.504 214.426 214.295 204.245 204.171 214.16 214.041 213.949 213.91 203.85 203.795 213.668 213.607 213.535 213.396 213.369 213.215 213.169 203.165 203.021 202.992 212.933 212.878 212.816 202.71 212.711 212.616 212.676 212.529 212.574 202.457 202.355 212.299 212.209 202.191 202.113 212.047 211.983 211.94 211.828 211.801 201.744 201.722 211.644 211.651 201.319 211.54 211.454 211.449 211.319 211.261 211.177 211.146 201.127 201.071 211.066 211.029 210.988 210.864 211.002 210.941 210.757 210.638 210.61 210.498 210.412 210.392 210.391 200.313 210.266 210.234 210.277 210.108 210.145 210.06 210.014 209.94 199.866 199.793 209.613 209.681 209.627 209.603 209.544 209.469 209.428 209.389 209.374 209.382 209.321 209.284 199.23 209.245 209.208 209.196 209.168 209.09 199.032 209.017 208.986 208.944 208.934 208.872 198.867 198.821 208.765 208.698 198.623 208.54 208.475 208.482 198.476 198.396 198.447 198.355 208.302 208.261 208.223 208.186 208.164 198.163 198.14 208.036 207.983 197.992 207.905 207.935 207.881 207.855 207.83 207.813 197.753 197.714 207.68 207.66 207.605 197.581 207.61 207.647 207.648 197.592 207.581 207.574 207.565 207.533 207.478 207.423 207.385 197.286 207.195 207.153 207.151 207.156 197.099 207.107 207.092 207.039 207.01 207.001 206.959 206.942 206.88 206.817 206.777 206.682 196.56 206.447 206.487 206.472 206.423 206.339 206.286 206.19 206.131 206.084 206.042 205.952 205.886 205.787 205.652 205.611 205.486 205.381 195.258 195.163 205.07 194.986 204.952 204.942 204.919 194.921 204.499 204.728 -9999 -9999 -9999 -9999 -9999 -9999 -9999 -9999 -9999 -9999 -9999 -9999 -9999 -9999 -9999 -9999 -9999 -9999 -9999 -9999 -9999 -9999 -9999 -9999 -9999 -9999 -9999 -9999 -9999 -9999 -9999 -9999 -9999 -9999 -9999 -9999 -9999 -9999 -9999 -9999 -9999 -9999 -9999 -9999 -9999 -9999 -9999 -9999 -9999 -9999 -9999 -9999 -9999 -9999 -9999 -9999 -9999 -9999 -9999 -9999 -9999 -9999 -9999 -9999 -9999 -9999 -9999 -9999 -9999 -9999 -9999 -9999 -9999 -9999 -9999 -9999 -9999 -9999 -9999 -9999 -9999 -9999 -9999 -9999 -9999 -9999 -9999 -9999 -9999 -9999 -9999 -9999 -9999 -9999 -9999 -9999 -9999 -9999 -9999 -9999 -9999 -9999 -9999 -9999 -9999 -9999 -9999 -9999 -9999 -9999 -9999 -9999 -9999 -9999 -9999 -9999 -9999 -9999 -9999 -9999 -9999 -9999 -9999 -9999 -9999 -9999 -9999 -9999 -9999 -9999 -9999 -9999 -9999 -9999 -9999 -9999 -9999 -9999 -9999 -9999 -9999 -9999 -9999 -9999 -9999 -9999 -9999 -9999 -9999 -9999 -9999 -9999 -9999 -9999 -9999 -9999 -9999 -9999 -9999 -9999 -9999 -9999 -9999 -9999 -9999 -9999 -9999 -9999 -9999 -9999 -9999 -9999 -9999 -9999 -9999 -9999 -9999 -9999 -9999 -9999 -9999 -9999 -9999
217.789 217.77 217.704 217.644 207.646 207.568 217.56 217.492 217.473 217.467 217.464 217.404 217.381 207.382 217.354 217.323 217.296 207.34 207.281 217.323 217.324 217.29 217.238 217.211 217.211 217.127 207.178 217.148 217.139 217.136 217.054 217.061 207.064 207.038 217.024 217.008 217 216.947 216.806 206.801 216.935 216.936 216.887 216.825 216.791 216.738 216.709 216.667 216.707 216.658 216.639 216.613 216.584 216.519 216.47 206.431 216.379 216.326 216.305 216.231 216.206 216.171 216.118 216.07 215.995 205.97 205.916 215.796 215.782 205.712 215.608 215.569 215.55 215.474 205.384 205.366 215.363 215.317 215.228 205.178 215.168 215.038 205.019 214.946 214.898 214.86 204.752 204.676 214.681 214.644 214.553 214.413 214.332 204.314 214.223 214.149 214.06 204.011 203.919 213.825 213.808 213.646 213.634 213.536 213.476 213.355 213.28 203.203 203.206 213.099 212.972 212.974 202.912 202.8 212.823 212.693 212.695 212.671 212.623 202.588 202.456 212.348 212.331 202.216 212.191 212.098 212.084 211.974 211.973 201.855 201.829 211.788 211.735 201.645 201.631 201.479 211.599 211.518 211.44 211.36 211.258 211.297 211.161 211.16 211.152 211.162 211.099 211.07 211.065 210.968 210.796 210.766 210.718 210.579 210.545 210.459 200.403 200.409 210.425 210.332 210.327 210.208 210.242 210.158 210.09 210.047 199.974 199.835 209.744 209.819 209.708 209.656 209.597 209.588 209.558 209.511 209.426 209.435 209.382 199.341 199.338 209.367 209.308 209.289 209.222 199.191 199.173 209.176 209.077 209.039 208.991 208.964 208.993 208.934 208.818 198.815 208.754 208.662 208.643 198.635 198.576 208.508 198.512 208.417 208.411 208.391 208.323 208.299 208.297 198.246 208.212 208.13 198.074 198.097 207.974 208.01 207.917 207.93 208.007 207.896 197.853 207.823 207.761 207.744 197.688 197.702 207.698 207.682 207.695 197.683 207.671 207.662 207.629 207.618 207.557 207.508 207.455 197.323 207.237 207.248 197.232 197.223 207.181 207.173 207.146 207.133 207.081 207.069 207.013 207.014 206.96 206.905 206.838 206.752 196.642 196.56 206.559 206.545 206.497 206.416 206.366 206.284 206.192 206.145 206.121 206.029 205.962 205.874 205.732 205.659 195.578 195.477 195.357 205.256 205.143 195.059 205.033 205.033 205.006 194.937 204.499 204.819 -9999 -9999 -9999 -9999 -9999 -9999 -9999 -9999 -9999 -9999 -9999 -9999 -9999 -9999 -9999 -9999 -9999 -9999 -9999 -9999 -9999 -9999 -9999 -9999 -9999 -9999 -9999 -9999 -9999 -9999 -9999 -9999 -9999 -9999 -9999 -9999 -9999 -9999 -9999 -9999 -9999 -9999 -9999 -9999 -9999 -9999 -9999 -9999 -9999 -9999 -9999 -9999 -9999 -9999 -9999 -9999 -9999 -9999 -9999 -9999 -9999 -9999 -9999 -9999 -9999 -9999 -9999 -9999 -9999 -9999 -9999 -9999 -9999 -9999 -9999 -9999 -9999 -9999 -9999 -9999 -9999 -9999 -9999 -9999 -9999 -9999 -9999 -9999 -9999 -9999 -9999 -9999 -9999 -9999 -9999 -9999 -9999 -9999 -9999 -9999 -9999 -9999 -9999 -9999 -9999 -9999 -9999 -9999 -9999 -9999 -9999 -9999 -9999 -9999 -9999 -9999 -9999 -9999 -9999 -9999 -9999 -9999 -9999 -9999 -9999 -9999 -9999 -9999 -9999 -9999 -9999 -9999 -9999 -9999 -9999 -9999 -9999 -9999 -9999 -9999 -9999 -9999 -9999 -9999 -9999 -9999 -9999 -9999 -9999 -9999 -9999 -9999 -9999 -9999 -9999 -9999 -9999 -9999 -9999 -9999 -9999 -9999 -9999 -9999 -9999 -9999 -9999 -9999 -9999 -9999 -9999 -9999 -9999 -9999 -9999 -9999 -9999 -9999 -9999 -9999 -9999 -9999 -9999
217.834 217.817 217.783 217.734 217.673 207.644 217.633 217.595 217.572 217.514 217.479 217.457 217.412 207.417 217.393 217.415 217.353 217.361 207.449 217.378 217.368 217.366 217.319 217.32 217.225 207.178 207.195 217.209 217.174 217.181 217.157 217.128 217.153 207.073 217.025 217.059 217.057 216.963 216.925 206.809 206.939 216.954 216.97 216.836 216.876 216.82 216.79 216.812 216.785 216.772 216.712 216.681 216.65 216.571 206.556 206.557 216.469 216.435 216.407 216.323 216.265 216.157 216.196 216.156 216.12 205.975 205.956 215.922 205.833 215.786 215.691 215.677 215.617 215.524 205.475 215.46 215.463 215.407 215.384 205.241 205.242 215.169 205.05 205.054 214.98 214.906 204.88 204.757 204.73 214.683 214.573 214.542 204.426 204.386 214.289 214.223 214.179 214.077 204.063 213.977 213.851 213.788 213.683 213.674 213.579 213.436 203.339 213.331 203.267 213.162 213.124 213.06 202.989 212.979 212.88 212.825 212.755 212.784 202.696 202.636 212.557 212.48 202.375 202.325 212.293 212.225 212.228 212.083 201.976 202.004 211.989 211.831 211.801 211.743 211.755 201.643 201.6 211.617 211.524 211.538 211.394 211.403 211.296 211.222 211.208 211.206 211.234 211.147 211.116 211.11 210.951 210.84 210.805 210.712 210.651 210.607 200.564 200.53 210.449 210.41 210.393 210.334 210.365 210.289 210.181 200.055 200.096 200.007 209.824 209.861 209.802 209.785 209.712 209.66 209.682 209.57 209.528 209.534 209.534 199.521 209.449 209.404 209.368 209.352 199.354 199.302 209.255 209.223 209.155 209.1 209.109 209.084 209.033 209.01 198.932 198.924 208.844 208.772 198.699 198.664 208.638 198.557 208.599 208.546 208.583 208.507 208.439 208.385 198.306 208.319 208.306 208.323 198.201 208.167 208.038 208.082 208.081 208.037 208.054 197.983 197.94 207.878 207.851 207.84 207.779 197.754 207.743 207.766 207.779 197.769 207.75 207.702 207.667 207.676 207.637 207.559 197.508 197.404 197.345 207.319 197.301 207.29 207.238 207.249 207.232 207.177 207.123 207.137 207.093 207.08 207.009 206.936 206.898 206.826 196.721 206.618 206.611 206.6 206.56 206.501 206.429 206.324 206.264 206.222 206.194 206.11 206.034 205.935 205.78 205.745 195.671 205.555 205.418 205.322 195.237 195.166 205.136 205.12 205.079 195.024 204.757 204.95 -9999 -9999 -9999 -9999 -9999 -9999 -9999 -9999 -9999 -9999 -9999 -9999 -9999 -9999 -9999 -9999 -9999 -9999 -9999 -9999 -9999 -9999 -9999 -9999 -9999 -9999 -9999 -9999 -9999 -9999 -9999 -9999 -9999 -9999 -9999 -9999 -9999 -9999 -9999 -9999 -9999 -9999 -9999 -9999 -9999 -9999 -9999 -9999 -9999 -9999 -9999 -9999 -9999 -9999 -9999 -9999 -9999 -9999 -9999 -9999 -9999 -9999 -9999 -9999 -9999 -9999 -9999 -9999 -9999 -9999 -9999 -9999 -9999 -9999 -9999 -9999 -9999 -9999 -9999 -9999 -9999 -9999 -9999 -9999 -9999 -9999 -9999 -9999 -9999 -9999 -9999 -9999 -9999 -9999 -9999 -9999 -9999 -9999 -9999 -9999 -9999 -9999 -9999 -9999 -9999 -9999 -9999 -9999 -9999 -9999 -9999 -9999 -9999 -9999 -9999 -9999 -9999 -9999 -9999 -9999 -9999 -9999 -9999 -9999 -9999 -9999 -9999 -9999 -9999 -9999 -9999 -9999 -9999 -9999 -9999 -9999 -9999 -9999 -9999 -9999 -9999 -9999 -9999 -9999 -9999 -9999 -9999 -9999 -9999 -9999 -9999 -9999 -9999 -9999 -9999 -9999 -9999 -9999 -9999 -9999 -9999 -9999 -9999 -9999 -9999 -9999 -9999 -9999 -9999 -9999 -9999 -9999 -9999 -9999 -9999 -9999 -9999 -9999 -9999 -9999 -9999 -9999 -9999
217.885 217.826 217.797 217.745 217.755 207.709 217.648 217.655 217.616 217.609 217.543 217.523 207.466 207.44 207.453 217.407 217.419 217.38 207.449 207.449 217.399 217.407 217.382 217.348 217.344 207.28 207.295 217.239 217.2 217.21 217.232 217.175 207.194 217.204 217.144 217.096 217.123 217.063 217.048 216.968 206.809 206.985 217.015 217.045 216.863 216.931 216.895 216.849 216.84 216.867 216.827 216.735 216.691 206.699 206.647 216.546 216.497 216.463 216.472 216.441 216.366 216.322 216.25 216.256 216.22 206.144 206.067 215.982 215.986 215.919 215.834 215.738 215.647 215.632 205.539 215.504 215.542 215.484 215.382 215.344 215.275 215.272 215.26 205.135 205.054 215.029 204.933 204.894 214.765 214.769 214.762 214.63 204.522 214.485 214.412 214.367 214.233 204.139 204.083 214.095 213.948 213.872 213.79 213.699 213.63 203.612 213.472 203.438 203.376 213.258 213.16 213.132 203.082 213.057 212.965 212.937 212.865 202.81 202.804 212.748 212.663 212.582 202.467 202.425 212.338 212.292 212.25 212.191 202.127 212.018 211.996 211.927 211.906 211.823 211.823 201.805 201.6 211.724 211.678 211.588 211.49 211.486 211.397 211.291 211.306 211.338 211.279 211.302 211.283 211.223 210.97 210.908 210.846 210.784 210.767 210.687 210.66 200.621 210.555 210.478 210.471 210.427 210.404 210.332 200.277 200.201 210.17 200.045 209.848 209.965 209.901 209.865 209.8 209.759 209.721 209.665 209.621 199.612 199.597 209.595 209.529 209.522 209.48 199.478 199.469 209.378 209.333 209.322 209.276 209.292 209.206 209.172 209.154 199.101 199.04 209.059 208.936 208.864 198.788 208.748 208.733 208.742 208.705 208.673 208.626 208.601 208.504 198.466 198.462 208.432 208.372 208.364 198.243 208.299 208.22 208.191 208.166 208.127 198.134 198.071 208.011 208.028 207.938 207.924 197.855 197.836 207.833 207.865 207.852 197.808 207.813 207.79 207.764 207.761 207.691 197.628 197.579 207.486 197.428 207.403 197.38 207.385 207.309 207.293 207.285 207.228 207.206 207.196 207.148 207.125 207.066 207.041 206.965 206.886 206.79 206.67 206.673 206.682 206.615 206.546 206.479 206.388 206.351 206.299 206.252 206.159 206.082 206.014 205.883 195.827 205.713 205.621 205.513 205.407 195.325 205.251 205.193 205.203 205.179 195.115 204.789 205.042 -9999 -9999 -9999 -9999 -9999 -9999 -9999 -9999 -9999 -9999 -9999 -9999 -9999 -9999 -9999 -9999 -9999 -9999 -9999 -9999 -9999 -9999 -9999 -9999 -9999 -9999 -9999 -9999 -9999 -9999 -9999 -9999 -9999 -9999 -9999 -9999 -9999 -9999 -9999 -9999 -9999 -9999 -9999 -9999 -9999 -9999 -9999 -9999 -9999 -9999 -9999 -9999 -9999 -9999 -9999 -9999 -9999 -9999 -9999 -9999 -9999 -9999 -9999 -9999 -9999 -9999 -9999 -9999 -9999 -9999 -9999 -9999 -9999 -9999 -9999 -9999 -9999 -9999 -9999 -9999 -9999 -9999 -9999 -9999 -9999 -9999 -9999 -9999 -9999 -9999 -9999 -9999 -9999 -9999 -9999 -9999 -9999 -9999 -9999 -9999 -9999 -9999 -9999 -9999 -9999 -9999 -9999 -9999 -9999 -9999 -9999 -9999 -9999 -9999 -9999 -9999 -9999 -9999 -9999 -9999 -9999 -9999 -9999 -9999 -9999 -9999 -9999 -9999 -9999 -9999 -9999 -9999 -9999 -9999 -9999 -9999 -9999 -9999 -9999 -9999 -9999 -9999 -9999 -9999 -9999 -9999 -9999 -9999 -9999 -9999 -9999 -9999 -9999 -9999 -9999 -9999 -9999 -9999 -9999 -9999 -9999 -9999 -9999 -9999 -9999 -9999 -9999 -9999 -9999 -9999 -9999 -9999 -9999 -9999 -9999 -9999 -9999 -9999 -9999 -9999 -9999 -9999 -9999
217.922 217.928 217.841 217.841 207.778 207.754 217.697 217.673 217.677 217.632 217.581 207.555 207.537 207.505 207.521 217.508 217.434 217.448 217.429 207.452 217.462 217.444 217.437 217.428 217.38 207.39 207.328 217.326 217.311 217.283 217.257 217.263 207.23 207.248 217.211 217.16 217.154 217.162 217.117 217.054 216.965 206.856 207.027 217.051 217.079 216.987 216.939 216.94 216.925 216.848 216.834 216.808 216.807 206.756 206.69 216.689 216.603 216.578 216.509 216.461 216.44 216.34 216.367 216.29 206.228 206.226 216.145 216.109 216.025 215.991 215.908 215.84 215.813 205.692 215.676 215.617 215.562 215.514 215.531 215.451 215.405 215.291 215.279 205.224 215.129 215.089 205.066 204.953 214.909 214.83 214.78 204.781 204.681 214.539 214.475 214.439 204.387 214.29 214.252 214.156 214.111 214.02 213.877 213.833 203.746 203.738 203.609 203.474 213.414 213.403 203.324 203.192 203.126 213.168 213.12 213.011 202.981 202.897 212.887 212.798 212.727 212.716 202.593 212.516 212.479 212.37 202.358 202.278 212.178 212.129 212.082 212.065 211.993 211.881 201.866 201.82 201.859 201.638 211.75 211.655 211.522 211.566 211.513 211.427 211.377 211.332 211.338 211.433 211.347 211.275 211.108 211.041 210.934 210.879 210.876 210.775 200.669 200.701 210.662 210.545 210.566 210.511 210.513 200.435 200.379 210.294 210.232 200.114 209.957 210.02 210.037 209.969 209.882 209.815 209.857 209.753 209.733 199.694 209.633 209.633 209.619 209.606 209.602 209.58 209.541 209.485 209.452 209.454 209.391 209.297 209.289 209.31 209.253 199.194 209.114 209.101 209.017 198.998 208.91 208.876 208.887 208.805 208.774 208.747 208.695 208.685 198.63 198.64 208.54 208.507 208.458 198.478 198.399 208.39 208.337 208.298 208.288 198.233 198.204 208.21 208.058 208.003 207.998 198.003 197.946 207.929 207.914 207.905 207.925 197.899 207.914 207.854 207.801 207.816 207.792 197.731 207.641 197.543 207.474 207.454 197.482 207.438 207.381 207.338 207.349 207.297 207.26 207.247 207.206 207.197 207.13 207.093 207.011 206.958 206.85 206.764 206.75 206.728 206.668 206.619 206.58 206.48 206.412 206.357 206.318 206.24 206.162 206.087 195.93 195.888 205.791 205.705 205.588 205.479 195.384 205.321 205.269 205.283 205.255 195.215 204.844 205.139 -9999 -9999 -9999 -9999 -9999 -9999 -9999 -9999 -9999 -9999 -9999 -9999 -9999 -9999 -9999 -9999 -9999 -9999 -9999 -9999 -9999 -9999 -9999 -9999 -9999 -9999 -9999 -9999 -9999 -9999 -9999 -9999 -9999 -9999 -9999 -9999 -9999 -9999 -9999 -9999 -9999 -9999 -9999 -9999 -9999 -9999 -9999 -9999 -9999 -9999 -9999 -9999 -9999 -9999 -9999 -9999 -9999 -9999 -9999 -9999 -9999 -9999 -9999 -9999 -9999 -9999 -9999 -9999 -9999 -9999 -9999 -9999 -9999 -9999 -9999 -9999 -9999 -9999 -9999 -9999 -9999 -9999 -9999 -9999 -9999 -9999 -9999 -9999 -9999 -9999 -9999 -9999 -9999 -9999 -9999 -9999 -9999 -9999 -9999 -9999 -9999 -9999 -9999 -9999 -9999 -9999 -9999 -9999 -9999 -9999 -9999 -9999 -9999 -9999 -9999 -9999 -9999 -9999 -9999 -9999 -9999 -9999 -9999 -9999 -9999 -9999 -9999 -9999 -9999 -9999 -9999 -9999 -9999 -9999 -9999 -9999 -9999 -9999 -9999 -9999 -9999 -9999 -9999 -9999 -9999 -9999 -9999 -9999 -9999 -9999 -9999 -9999 -9999 -9999 -9999 -9999 -9999 -9999 -9999 -9999 -9999 -9999 -9999 -9999 -9999 -9999 -9999 -9999 -9999 -9999 -9999 -9999 -9999 -9999 -9999 -9999 -9999 -9999 -9999 -9999 -9999 -9999 -9999
217.968 217.961 217.921 217.848 217.84 207.81 207.77 217.726 217.716 217.708 217.664 207.606 207.581 207.553 217.481 207.521 217.496 217.523 217.511 207.493 207.535 217.485 217.512 217.452 217.428 217.39 207.408 207.369 217.358 217.328 217.348 217.356 217.299 207.336 207.306 217.249 217.203 217.204 217.202 217.167 217.121 207.009 207.05 217.105 217.101 217.012 217.027 217.033 217.022 216.972 216.881 216.946 216.904 216.823 206.826 216.702 216.717 216.658 216.611 216.552 216.502 216.502 216.41 216.403 206.333 216.271 216.279 216.173 216.1 216.06 216.019 215.934 205.853 205.816 215.731 215.693 215.643 215.599 215.588 215.549 215.431 215.389 205.385 215.323 215.223 215.157 205.136 205.109 214.991 214.889 214.863 204.827 214.753 214.667 214.617 204.545 204.491 214.392 214.28 214.257 214.201 214.06 214.028 203.9 203.84 213.782 203.699 213.628 213.518 203.457 203.412 213.34 213.23 213.188 213.201 203.08 202.978 213.036 213.006 212.9 212.865 212.816 202.67 202.593 212.549 212.514 202.414 212.371 212.3 212.221 212.182 212.103 212.092 202.006 202.027 211.927 211.857 201.796 201.845 211.821 211.671 211.646 211.594 211.504 211.418 211.44 211.452 211.469 211.367 211.382 211.162 211.131 211.034 210.968 210.926 210.86 210.842 200.759 210.732 210.629 210.635 210.574 210.612 200.542 210.434 210.408 210.391 200.286 209.997 210.135 210.1 210.095 210.04 209.968 209.968 209.883 199.793 209.762 209.813 209.794 209.7 209.686 209.618 209.62 209.627 209.571 209.567 209.51 209.412 209.456 209.388 209.358 209.311 209.262 209.169 209.209 199.151 199.03 209.008 208.967 208.932 208.888 208.83 208.828 208.826 208.812 198.747 208.66 208.631 208.619 198.651 198.572 208.524 208.514 208.424 208.412 198.357 198.352 208.31 208.249 208.136 208.152 208.16 198.088 208.025 207.963 207.972 207.989 197.993 197.977 207.961 207.946 207.909 197.899 197.829 207.779 197.705 197.615 207.56 207.505 197.527 207.485 207.467 207.412 207.403 207.376 207.32 207.333 207.289 207.259 207.189 207.131 207.081 206.995 206.936 206.793 206.795 206.804 206.767 206.69 206.621 206.553 206.492 206.44 206.381 206.292 206.198 196.145 195.995 205.97 205.862 205.772 205.65 205.545 195.467 205.422 205.363 205.345 195.324 195.288 205.021 205.238 -9999 -9999 -9999 -9999 -9999 -9999 -9999 -9999 -9999 -9999 -9999 -9999 -9999 -9999 -9999 -9999 -9999 -9999 -9999 -9999 -9999 -9999 -9999 -9999 -9999 -9999 -9999 -9999 -9999 -9999 -9999 -9999 -9999 -9999 -9999 -9999 -9999 -9999 -9999 -9999 -9999 -9999 -9999 -9999 -9999 -9999 -9999 -9999 -9999 -9999 -9999 -9999 -9999 -9999 -9999 -9999 -9999 -9999 -9999 -9999 -9999 -9999 -9999 -9999 -9999 -9999 -9999 -9999 -9999 -9999 -9999 -9999 -9999 -9999 -9999 -9999 -9999 -9999 -9999 -9999 -9999 -9999 -9999 -9999 -9999 -9999 -9999 -9999 -9999 -9999 -9999 -9999 -9999 -9999 -9999 -9999 -9999 -9999 -9999 -9999 -9999 -9999 -9999 -9999 -9999 -9999 -9999 -9999 -9999 -9999 -9999 -9999 -9999 -9999 -9999 -9999 -9999 -9999 -9999 -9999 -9999 -9999 -9999 -9999 -9999 -9999 -9999 -9999 -9999 -9999 -9999 -9999 -9999 -9999 -9999 -9999 -9999 -9999 -9999 -9999 -9999 -9999 -9999 -9999 -9999 -9999 -9999 -9999 -9999 -9999 -9999 -9999 -9999 -9999 -9999 -9999 -9999 -9999 -9999 -9999 -9999 -9999 -9999 -9999 -9999 -9999 -9999 -9999 -9999 -9999 -9999 -9999 -9999 -9999 -9999 -9999 -9999 -9999 -9999 -9999 -9999 -9999 -9999
218.079 217.972 217.951 217.89 217.881 207.863 207.852 217.774 217.751 207.73 207.712 207.667 207.644 207.595 217.566 207.527 207.578 217.545 217.558 217.558 207.524 217.561 217.514 217.53 217.529 217.499 217.414 207.441 217.399 217.42 217.391 217.396 217.36 217.314 207.382 217.34 217.282 217.341 217.259 217.187 207.191 207.102 216.992 207.185 217.151 217.169 217.084 217.07 217.037 217.013 217.009 216.951 216.984 216.891 206.874 206.836 216.791 216.751 216.734 216.615 216.604 216.52 216.472 216.48 206.452 216.366 216.329 216.254 216.212 216.128 216.084 206.049 205.945 215.879 215.861 215.771 215.699 215.656 215.628 215.582 215.576 205.485 205.453 215.419 215.358 205.238 205.203 205.169 215.115 214.999 214.93 204.859 214.876 214.793 204.695 204.642 214.578 214.492 214.399 214.293 214.281 214.273 204.096 204.02 213.94 203.852 203.885 213.774 203.627 203.566 213.47 213.426 213.329 213.251 213.229 203.195 213.175 213.04 213.05 213.069 212.871 212.861 212.8 202.755 212.683 202.568 202.507 212.472 212.422 212.304 212.244 212.195 212.161 202.088 212.089 212.01 201.981 201.977 201.796 211.881 211.744 211.737 211.643 211.627 211.573 211.521 211.495 211.55 211.474 211.497 211.235 211.175 211.082 211.042 211.043 211.005 210.874 210.843 210.801 210.746 210.774 210.718 200.642 210.567 210.573 210.58 210.462 200.346 210.032 210.253 210.202 210.172 210.126 210.058 210.066 209.937 199.903 209.892 209.833 209.854 209.798 209.736 209.742 209.768 209.715 209.647 209.649 209.622 209.57 209.556 209.465 209.466 209.427 209.384 209.332 199.337 199.242 209.163 209.06 209.045 208.975 208.987 208.961 208.994 208.961 208.862 198.83 208.773 208.747 208.736 198.723 208.689 208.587 208.581 208.595 198.488 198.451 208.375 208.359 208.357 208.311 208.264 198.178 208.118 208.093 208.063 208.101 208.078 198.053 208.043 208.061 208.041 207.994 197.978 207.9 197.861 197.791 207.695 207.604 197.574 197.593 207.551 207.524 207.474 207.468 207.441 207.384 207.388 207.323 207.315 207.267 207.225 207.158 207.086 206.97 206.877 206.884 206.861 206.832 206.728 206.692 206.617 206.541 206.493 206.458 206.343 196.264 196.203 206.059 205.985 205.895 205.809 205.702 205.612 195.523 205.487 205.438 195.442 195.412 195.387 205.069 205.333 -9999 -9999 -9999 -9999 -9999 -9999 -9999 -9999 -9999 -9999 -9999 -9999 -9999 -9999 -9999 -9999 -9999 -9999 -9999 -9999 -9999 -9999 -9999 -9999 -9999 -9999 -9999 -9999 -9999 -9999 -9999 -9999 -9999 -9999 -9999 -9999 -9999 -9999 -9999 -9999 -9999 -9999 -9999 -9999 -9999 -9999 -9999 -9999 -9999 -9999 -9999 -9999 -9999 -9999 -9999 -9999 -9999 -9999 -9999 -9999 -9999 -9999 -9999 -9999 -9999 -9999 -9999 -9999 -9999 -9999 -9999 -9999 -9999 -9999 -9999 -9999 -9999 -9999 -9999 -9999 -9999 -9999 -9999 -9999 -9999 -9999 -9999 -9999 -9999 -9999 -9999 -9999 -9999 -9999 -9999 -9999 -9999 -9999 -9999 -9999 -9999 -9999 -9999 -9999 -9999 -9999 -9999 -9999 -9999 -9999 -9999 -9999 -9999 -9999 -9999 -9999 -9999 -9999 -9999 -9999 -9999 -9999 -9999 -9999 -9999 -9999 -9999 -9999 -9999 -9999 -9999 -9999 -9999 -9999 -9999 -9999 -9999 -9999 -9999 -9999 -9999 -9999 -9999 -9999 -9999 -9999 -9999 -9999 -9999 -9999 -9999 -9999 -9999 -9999 -9999 -9999 -9999 -9999 -9999 -9999 -9999 -9999 -9999 -9999 -9999 -9999 -9999 -9999 -9999 -9999 -9999 -9999 -9999 -9999 -9999 -9999 -9999 -9999 -9999 -9999 -9999 -9999 -9999
218.153 218.062 217.998 217.98 217.914 207.912 207.886 217.856 217.778 207.764 217.787 217.733 207.699 207.655 207.668 217.621 207.615 207.578 217.567 217.6 207.571 207.566 217.547 217.575 217.598 217.549 217.542 207.517 207.497 217.466 217.481 217.433 217.46 217.42 207.382 207.425 217.371 217.316 217.366 217.301 207.248 207.281 217.118 207.185 207.211 217.201 217.186 217.129 217.12 217.051 217.091 217.083 217.009 216.964 216.983 206.943 206.844 216.856 216.807 216.763 216.689 216.683 216.609 206.49 206.525 216.419 216.393 216.331 216.29 216.205 216.191 206.126 216.058 216.015 215.975 215.881 215.824 215.695 215.7 215.717 205.626 205.614 215.495 215.498 205.461 205.352 205.32 215.256 215.185 215.09 204.992 204.982 214.942 214.874 204.794 214.708 214.645 214.636 214.514 214.412 214.383 204.281 204.261 214.151 204.069 213.985 213.901 213.795 203.753 213.692 213.621 213.548 213.415 213.301 213.326 213.331 213.208 213.124 213.094 213.114 213.01 212.955 212.92 202.818 202.762 202.743 212.665 212.546 212.5 212.414 212.343 212.345 202.272 212.136 212.137 212.118 202.111 201.979 202.005 201.798 211.872 211.897 211.78 211.738 211.615 211.581 211.604 211.63 211.477 211.536 211.37 211.282 211.188 211.156 211.12 211.021 210.947 210.93 210.836 210.802 210.829 200.764 200.75 210.713 210.597 210.591 210.507 200.406 210.112 210.363 210.335 210.218 210.186 210.151 210.165 210.058 200.017 209.964 209.955 209.898 209.889 209.876 209.828 209.807 209.806 209.723 209.723 209.709 209.626 209.611 209.545 209.534 209.504 209.468 199.376 199.371 209.315 209.235 209.151 209.188 209.135 209.101 209.122 209.018 209.005 198.975 198.949 208.896 208.843 208.82 198.785 208.79 208.74 208.682 208.663 198.53 208.54 208.478 208.52 208.454 208.36 198.278 208.27 208.267 208.237 208.174 208.137 208.14 198.125 208.145 208.16 208.119 198.057 198.049 197.982 197.938 207.851 207.755 197.697 197.668 207.666 207.607 207.606 207.577 207.538 207.499 207.46 207.447 207.426 207.411 207.341 207.268 207.239 207.172 207.069 206.956 206.931 206.926 206.876 206.805 206.751 206.701 206.599 206.556 206.521 196.427 196.327 206.244 206.109 206.061 205.959 205.89 205.782 205.683 195.595 205.543 205.539 205.532 195.468 195.451 205.078 205.44 -9999 -9999 -9999 -9999 -9999 -9999 -9999 -9999 -9999 -9999 -9999 -9999 -9999 -9999 -9999 -9999 -9999 -9999 -9999 -9999 -9999 -9999 -9999 -9999 -9999 -9999 -9999 -9999 -9999 -9999 -9999 -9999 -9999 -9999 -9999 -9999 -9999 -9999 -9999 -9999 -9999 -9999 -9999 -9999 -9999 -9999 -9999 -9999 -9999 -9999 -9999 -9999 -9999 -9999 -9999 -9999 -9999 -9999 -9999 -9999 -9999 -9999 -9999 -9999 -9999 -9999 -9999 -9999 -9999 -9999 -9999 -9999 -9999 -9999 -9999 -9999 -9999 -9999 -9999 -9999 -9999 -9999 -9999 -9999 -9999 -9999 -9999 -9999 -9999 -9999 -9999 -9999 -9999 -9999 -9999 -9999 -9999 -9999 -9999 -9999 -9999 -9999 -9999 -9999 -9999 -9999 -9999 -9999 -9999 -9999 -9999 -9999 -9999 -9999 -9999 -9999 -9999 -9999 -9999 -9999 -9999 -9999 -9999 -9999 -9999 -9999 -9999 -9999 -9999 -9999 -9999 -9999 -9999 -9999 -9999 -9999 -9999 -9999 -9999 -9999 -9999 -9999 -9999 -9999 -9999 -9999 -9999 -9999 -9999 -9999 -9999 -9999 -9999 -9999 -9999 -9999 -9999 -9999 -9999 -9999 -9999 -9999 -9999 -9999 -9999 -9999 -9999 -9999 -9999 -9999 -9999 -9999 -9999 -9999 -9999 -9999 -9999 -9999 -9999 -9999 -9999 -9999 -9999
218.172 218.132 218.045 218.042 217.986 207.943 217.922 207.9 207.85 217.835 207.793 207.771 217.741 207.724 207.715 217.622 217.587 207.659 217.621 217.646 217.676 207.6 217.646 217.636 217.628 217.623 217.576 217.601 207.557 207.531 217.521 217.545 217.503 207.491 207.484 217.447 217.456 217.366 217.376 217.375 217.326 207.291 217.317 217.168 207.185 217.288 217.273 217.173 217.207 217.187 217.103 217.117 217.124 217.083 216.992 216.965 206.955 216.941 216.904 216.841 216.766 216.769 216.701 206.617 216.589 216.56 216.477 216.465 216.379 216.253 216.239 206.216 216.169 216.065 216.014 215.964 215.86 215.853 215.8 215.777 205.74 205.685 215.606 205.545 205.515 215.452 215.378 205.32 215.305 215.206 205.112 215.033 214.992 214.997 214.884 214.849 214.735 214.696 214.659 214.545 214.477 204.385 214.327 204.291 204.113 214.131 213.984 203.93 203.904 213.751 213.646 213.628 213.528 213.49 213.401 213.343 213.373 213.239 213.278 213.177 213.149 213.032 202.916 202.913 202.836 212.787 212.739 212.636 212.601 212.534 212.493 202.368 212.306 212.34 212.281 202.199 212.164 212.079 202.103 202.018 202.003 211.968 211.838 211.819 211.731 211.726 211.694 211.646 211.619 211.619 211.43 211.388 211.295 211.23 211.151 211.123 211.099 210.987 210.91 210.913 210.891 200.864 210.812 210.786 210.676 210.672 210.659 200.556 210.229 210.41 210.402 210.294 210.297 210.255 210.277 210.155 200.058 210 210.085 210.033 209.992 209.939 209.878 209.887 209.888 209.89 209.819 209.752 209.691 209.71 209.675 209.666 209.569 209.555 199.451 209.457 209.427 209.361 209.284 209.224 209.221 209.19 209.176 209.116 209.162 199.079 209.035 208.958 208.986 198.961 198.905 208.861 208.814 208.78 198.742 198.699 208.657 208.624 208.559 208.531 198.458 198.404 208.403 208.331 208.253 208.191 208.229 198.232 198.262 208.231 208.203 198.178 198.155 198.143 208.038 207.999 207.929 197.874 197.772 207.737 207.729 207.691 207.7 207.633 207.631 207.586 207.538 207.529 207.47 207.381 207.397 207.339 207.273 207.213 207.145 207.019 207.018 207.005 206.947 206.884 206.797 206.764 206.698 206.664 196.587 196.482 206.381 206.308 206.203 206.163 206.031 205.956 205.871 195.785 195.704 205.668 205.656 205.617 205.503 195.497 205.235 205.547 -9999 -9999 -9999 -9999 -9999 -9999 -9999 -9999 -9999 -9999 -9999 -9999 -9999 -9999 -9999 -9999 -9999 -9999 -9999 -9999 -9999 -9999 -9999 -9999 -9999 -9999 -9999 -9999 -9999 -9999 -9999 -9999 -9999 -9999 -9999 -9999 -9999 -9999 -9999 -9999 -9999 -9999 -9999 -9999 -9999 -9999 -9999 -9999 -9999 -9999 -9999 -9999 -9999 -9999 -9999 -9999 -9999 -9999 -9999 -9999 -9999 -9999 -9999 -9999 -9999 -9999 -9999 -9999 -9999 -9999 -9999 -9999 -9999 -9999 -9999 -9999 -9999 -9999 -9999 -9999 -9999 -9999 -9999 -9999 -9999 -9999 -9999 -9999 -9999 -9999 -9999 -9999 -9999 -9999 -9999 -9999 -9999 -9999 -9999 -9999 -9999 -9999 -9999 -9999 -9999 -9999 -9999 -9999 -9999 -9999 -9999 -9999 -9999 -9999 -9999 -9999 -9999 -9999 -9999 -9999 -9999 -9999 -9999 -9999 -9999 -9999 -9999 -9999 -9999 -9999 -9999 -9999 -9999 -9999 -9999 -9999 -9999 -9999 -9999 -9999 -9999 -9999 -9999 -9999 -9999 -9999 -9999 -9999 -9999 -9999 -9999 -9999 -9999 -9999 -9999 -9999 -9999 -9999 -9999 -9999 -9999 -9999 -9999 -9999 -9999 -9999 -9999 -9999 -9999 -9999 -9999 -9999 -9999 -9999 -9999 -9999 -9999 -9999 -9999 -9999 -9999 -9999 -9999
218.164 218.167 218.14 218.046 218.031 217.988 207.971 207.962 217.926 217.857 217.838 207.852 217.798 217.781 207.767 207.732 217.648 207.659 207.724 217.63 217.614 207.676 207.652 217.73 217.673 217.693 217.697 217.65 217.64 207.614 207.586 217.563 217.57 207.567 207.52 217.532 217.519 217.505 217.454 217.428 217.409 207.348 207.3 217.268 217.125 207.292 217.35 217.315 217.177 217.276 217.212 217.151 217.192 217.191 217.096 217.031 217.031 206.98 216.94 216.928 216.874 216.818 206.784 206.744 216.682 216.6 216.498 216.479 216.464 216.425 216.354 206.334 216.295 216.155 216.123 216.065 215.989 215.91 215.877 205.832 205.788 205.777 215.689 215.607 215.602 215.594 205.508 205.399 215.373 205.349 205.221 215.124 215.055 214.985 214.974 214.889 214.835 214.823 214.71 214.602 204.577 214.519 204.457 204.372 214.202 214.134 204.16 214.071 213.956 213.9 213.782 213.674 213.704 213.548 213.432 213.456 213.438 213.386 213.386 213.3 213.213 203.143 203.062 203.04 212.936 212.849 212.833 212.76 212.696 212.585 202.528 202.458 212.47 212.382 202.342 202.31 212.23 212.198 212.165 212.161 202.003 212.037 212.008 211.974 211.842 211.794 211.74 211.73 211.671 211.716 211.564 211.453 211.34 211.319 211.235 211.227 211.162 211.107 210.996 211.005 210.984 200.985 210.842 210.856 210.816 210.843 210.737 200.639 210.308 210.471 210.496 210.407 210.445 210.374 210.313 210.18 200.14 210.134 210.169 210.12 210.112 210.015 210.002 210.007 209.996 209.899 209.89 209.901 209.866 209.773 209.767 209.721 209.639 199.632 209.61 209.553 209.545 209.446 209.374 209.347 209.316 209.281 209.301 199.311 199.24 209.2 209.151 209.064 199.061 199.037 209.041 208.973 208.911 198.881 198.83 208.821 208.723 208.705 208.705 198.633 198.564 208.483 208.436 208.395 208.328 208.35 198.345 198.31 208.283 208.316 198.315 198.274 198.241 208.208 208.126 208.09 208.001 197.89 207.834 207.797 207.783 207.763 207.729 207.699 207.655 207.632 207.569 207.548 207.516 207.478 207.452 207.401 207.366 207.326 207.233 207.14 207.139 207.124 207.069 207.003 206.905 206.882 206.82 206.751 196.664 206.59 206.514 206.449 206.312 206.229 206.122 206.071 206.004 195.895 195.835 205.81 205.778 205.734 205.645 195.61 205.131 205.637 -9999 -9999 -9999 -9999 -9999 -9999 -9999 -9999 -9999 -9999 -9999 -9999 -9999 -9999 -9999 -9999 -9999 -9999 -9999 -9999 -9999 -9999 -9999 -9999 -9999 -9999 -9999 -9999 -9999 -9999 -9999 -9999 -9999 -9999 -9999 -9999 -9999 -9999 -9999 -9999 -9999 -9999 -9999 -9999 -9999 -9999 -9999 -9999 -9999 -9999 -9999 -9999 -9999 -9999 -9999 -9999 -9999 -9999 -9999 -9999 -9999 -9999 -9999 -9999 -9999 -9999 -9999 -9999 -9999 -9999 -9999 -9999 -9999 -9999 -9999 -9999 -9999 -9999 -9999 -9999 -9999 -9999 -9999 -9999 -9999 -9999 -9999 -9999 -9999 -9999 -9999 -9999 -9999 -9999 -9999 -9999 -9999 -9999 -9999 -9999 -9999 -9999 -9999 -9999 -9999 -9999 -9999 -9999 -9999 -9999 -9999 -9999 -9999 -9999 -9999 -9999 -9999 -9999 -9999 -9999 -9999 -9999 -9999 -9999 -9999 -9999 -9999 -9999 -9999 -9999 -9999 -9999 -9999 -9999 -9999 -9999 -9999 -9999 -9999 -9999 -9999 -9999 -9999 -9999 -9999 -9999 -9999 -9999 -9999 -9999 -9999 -9999 -9999 -9999 -9999 -9999 -9999 -9999 -9999 -9999 -9999 -9999 -9999 -9999 -9999 -9999 -9999 -9999 -9999 -9999 -9999 -9999 -9999 -9999 -9999 -9999 -9999 -9999 -9999 -9999 -9999 -9999 -9999
218.248 218.211 218.21 218.109 218.075 208.042 207.993 207.988 217.935 217.923 217.873 207.852 207.879 217.82 217.819 207.813 207.77 217.725 207.724 207.741 217.71 217.659 207.724 217.693 217.71 217.717 217.678 217.76 217.721 217.695 207.68 217.632 217.628 217.613 207.58 207.585 217.591 217.61 217.52 217.522 217.489 207.449 217.418 217.373 217.298 207.292 207.329 217.364 217.341 217.258 217.308 217.287 217.188 217.258 217.163 217.118 217.066 206.988 207.004 216.985 216.898 216.901 206.876 216.837 216.775 216.682 216.618 216.555 216.491 216.481 216.421 216.35 206.334 216.328 216.231 216.121 216.087 216.012 205.94 205.898 215.875 215.803 215.816 215.749 215.67 215.669 205.607 205.493 215.496 205.408 215.351 215.232 215.175 215.117 215.066 215.039 214.936 214.874 214.847 204.757 204.658 204.571 204.458 214.473 214.402 204.282 204.196 214.144 214.039 214.011 213.949 213.821 213.704 213.647 213.574 213.515 213.49 213.428 213.447 213.361 203.262 203.286 203.208 213.071 213.017 212.931 212.853 212.847 212.745 202.656 202.62 212.609 212.478 202.463 212.422 212.372 212.368 212.259 212.23 212.203 211.954 202.003 212.079 212.028 211.929 211.891 211.901 211.823 211.736 211.809 211.672 211.569 211.502 211.491 211.288 211.325 211.239 211.235 211.14 211.138 201.057 211.008 210.952 210.971 210.843 210.895 210.838 200.718 210.478 210.608 210.645 210.507 210.494 210.448 210.438 200.346 200.222 210.227 210.2 210.186 210.188 210.148 210.119 210.063 210.031 210.018 209.989 209.956 209.91 209.87 209.777 209.807 199.771 199.68 209.705 209.671 209.606 209.526 209.442 209.416 209.453 209.42 209.415 199.345 209.307 209.278 209.239 209.227 199.159 209.147 209.114 209.011 198.975 198.965 208.891 208.77 208.783 208.754 198.794 198.692 208.611 208.49 208.515 208.504 208.421 198.441 198.379 208.402 208.34 208.362 198.392 198.343 208.323 208.293 208.2 208.147 198.053 208.017 207.934 207.935 207.864 207.841 207.816 207.797 207.768 207.721 207.707 207.66 207.63 207.618 207.579 207.511 207.486 207.417 207.382 207.268 207.241 207.213 207.155 207.114 207.078 207.014 206.937 196.891 196.845 206.755 206.653 206.562 206.424 206.365 206.292 206.209 196.108 196.039 205.969 205.949 205.92 205.862 195.771 195.754 205.33 205.74 -9999 -9999 -9999 -9999 -9999 -9999 -9999 -9999 -9999 -9999 -9999 -9999 -9999 -9999 -9999 -9999 -9999 -9999 -9999 -9999 -9999 -9999 -9999 -9999 -9999 -9999 -9999 -9999 -9999 -9999 -9999 -9999 -9999 -9999 -9999 -9999 -9999 -9999 -9999 -9999 -9999 -9999 -9999 -9999 -9999 -9999 -9999 -9999 -9999 -9999 -9999 -9999 -9999 -9999 -9999 -9999 -9999 -9999 -9999 -9999 -9999 -9999 -9999 -9999 -9999 -9999 -9999 -9999 -9999 -9999 -9999 -9999 -9999 -9999 -9999 -9999 -9999 -9999 -9999 -9999 -9999 -9999 -9999 -9999 -9999 -9999 -9999 -9999 -9999 -9999 -9999 -9999 -9999 -9999 -9999 -9999 -9999 -9999 -9999 -9999 -9999 -9999 -9999 -9999 -9999 -9999 -9999 -9999 -9999 -9999 -9999 -9999 -9999 -9999 -9999 -9999 -9999 -9999 -9999 -9999 -9999 -9999 -9999 -9999 -9999 -9999 -9999 -9999 -9999 -9999 -9999 -9999 -9999 -9999 -9999 -9999 -9999 -9999 -9999 -9999 -9999 -9999 -9999 -9999 -9999 -9999 -9999 -9999 -9999 -9999 -9999 -9999 -9999 -9999 -9999 -9999 -9999 -9999 -9999 -9999 -9999 -9999 -9999 -9999 -9999 -9999 -9999 -9999 -9999 -9999 -9999 -9999 -9999 -9999 -9999 -9999 -9999 -9999 -9999 -9999 -9999 -9999 -9999
218.511 218.21 218.245 218.203 218.126 208.088 218.076 208.025 208.007 217.971 217.982 207.92 207.924 217.898 217.795 217.833 207.838 217.773 217.779 207.724 217.77 217.784 207.764 217.767 217.808 217.793 217.82 217.776 217.737 217.749 207.736 217.727 217.717 217.675 217.663 207.668 207.606 217.607 217.583 217.561 217.56 207.516 207.486 217.47 217.423 217.283 207.334 217.415 217.402 217.425 217.389 217.326 217.341 217.259 217.218 217.18 217.206 217.149 207.064 217.02 217.002 216.964 206.934 216.862 216.858 216.772 216.725 216.721 216.605 216.517 216.49 206.437 216.366 216.378 216.336 216.2 216.165 216.12 206.016 205.967 215.93 215.895 215.881 215.791 215.755 215.712 205.684 205.613 205.519 205.487 215.414 215.344 215.229 215.196 215.194 215.071 215.032 214.99 214.942 204.902 214.784 204.66 214.61 214.546 204.499 204.38 214.307 214.216 214.197 214.154 214.012 213.931 213.853 213.767 213.685 213.6 213.505 213.571 213.495 203.521 203.482 203.324 213.242 213.144 213.084 213.093 212.993 212.86 202.87 202.798 212.731 212.634 202.594 202.535 212.528 212.46 212.382 212.373 212.355 212.242 212.269 202.272 202.099 212.106 211.98 212.01 211.953 211.881 211.867 211.831 211.78 211.673 211.586 211.511 211.379 211.429 211.308 211.288 211.214 201.191 201.153 211.152 211.01 211.026 211.01 210.961 210.906 210.832 210.539 210.681 210.705 210.571 210.584 210.562 200.563 200.413 210.347 210.261 210.305 210.283 210.252 210.209 210.167 210.143 210.164 210.103 210.047 210.048 209.983 209.955 209.923 199.933 199.861 209.802 209.743 209.696 209.626 209.587 209.55 209.531 209.492 209.474 199.484 199.415 209.412 209.341 209.334 199.281 209.22 209.157 209.166 209.135 199.092 209.047 209.017 208.949 208.974 208.925 198.853 208.733 208.7 208.652 208.651 208.613 208.539 198.534 208.473 208.478 208.515 208.521 198.509 198.459 208.441 208.419 208.309 198.242 198.175 208.1 208.036 208.004 207.98 207.967 207.918 207.914 207.889 207.84 207.832 207.794 207.731 207.709 207.677 207.639 207.607 207.54 207.492 207.444 207.392 207.371 207.31 207.254 207.226 207.186 197.105 197.057 206.984 206.882 206.803 206.73 206.598 206.549 206.458 206.378 196.303 196.216 206.153 206.109 196.066 196.052 195.951 195.966 205.908 205.87 -9999 -9999 -9999 -9999 -9999 -9999 -9999 -9999 -9999 -9999 -9999 -9999 -9999 -9999 -9999 -9999 -9999 -9999 -9999 -9999 -9999 -9999 -9999 -9999 -9999 -9999 -9999 -9999 -9999 -9999 -9999 -9999 -9999 -9999 -9999 -9999 -9999 -9999 -9999 -9999 -9999 -9999 -9999 -9999 -9999 -9999 -9999 -9999 -9999 -9999 -9999 -9999 -9999 -9999 -9999 -9999 -9999 -9999 -9999 -9999 -9999 -9999 -9999 -9999 -9999 -9999 -9999 -9999 -9999 -9999 -9999 -9999 -9999 -9999 -9999 -9999 -9999 -9999 -9999 -9999 -9999 -9999 -9999 -9999 -9999 -9999 -9999 -9999 -9999 -9999 -9999 -9999 -9999 -9999 -9999 -9999 -9999 -9999 -9999 -9999 -9999 -9999 -9999 -9999 -9999 -9999 -9999 -9999 -9999 -9999 -9999 -9999 -9999 -9999 -9999 -9999 -9999 -9999 -9999 -9999 -9999 -9999 -9999 -9999 -9999 -9999 -9999 -9999 -9999 -9999 -9999 -9999 -9999 -9999 -9999 -9999 -9999 -9999 -9999 -9999 -9999 -9999 -9999 -9999 -9999 -9999 -9999 -9999 -9999 -9999 -9999 -9999 -9999 -9999 -9999 -9999 -9999 -9999 -9999 -9999 -9999 -9999 -9999 -9999 -9999 -9999 -9999 -9999 -9999 -9999 -9999 -9999 -9999 -9999 -9999 -9999 -9999 -9999 -9999 -9999 -9999 -9999 -9999
218.793 218.354 218.241 218.27 218.185 218.117 208.125 218.084 208.081 208.038 217.998 217.996 208.002 217.989 217.925 207.879 207.864 217.88 217.812 207.779 207.83 217.801 207.811 217.796 217.834 217.883 217.831 217.904 217.821 217.855 207.814 207.78 217.744 217.747 217.686 217.722 207.719 217.673 217.709 217.626 217.586 217.612 207.558 207.539 217.526 217.433 207.334 207.462 217.443 217.422 217.395 217.45 217.356 217.348 217.383 217.269 217.256 217.192 217.131 217.104 217.041 217.062 206.984 216.932 216.882 216.853 216.803 216.759 216.657 216.612 206.562 206.57 216.507 216.424 216.364 216.325 216.264 216.15 206.162 216.007 215.998 216.028 215.948 215.881 215.857 215.802 205.843 205.7 215.64 215.567 215.534 215.479 215.396 215.273 215.194 215.192 215.144 215.057 205.024 204.911 214.874 204.779 214.706 204.659 204.552 214.514 214.376 214.346 214.306 214.175 214.172 214.045 213.991 213.852 213.758 213.702 213.671 213.582 203.619 203.568 203.48 203.392 213.356 213.314 213.223 213.165 213.049 203.008 203.005 212.897 212.797 212.767 202.726 212.654 212.573 212.507 212.518 212.449 212.399 212.383 212.291 212.248 202.174 202.214 212.148 212.059 212.045 211.97 211.966 211.97 211.893 211.731 211.655 211.604 211.507 211.525 211.429 211.377 201.31 201.315 211.271 211.216 211.131 211.092 211.13 211.049 210.973 210.823 210.631 210.733 210.743 210.731 210.696 210.617 200.588 210.451 210.458 210.397 210.381 210.366 210.367 210.246 210.267 210.219 210.19 210.113 210.096 210.095 210.048 210.044 199.93 199.926 209.904 209.831 209.801 209.795 209.752 209.744 209.68 209.641 209.578 209.62 199.608 209.556 209.479 209.459 199.412 209.394 209.377 209.318 209.327 199.234 209.198 209.187 209.143 209.095 209.039 198.966 208.973 208.946 208.885 208.809 208.754 208.67 198.596 198.652 208.622 208.657 208.615 198.603 198.629 198.555 208.558 208.559 198.461 198.4 208.309 208.192 208.173 208.134 208.1 208.104 208.046 208.027 208.04 208.011 208.011 207.956 207.874 207.848 207.807 207.797 207.748 207.704 207.644 207.568 207.514 207.521 207.495 197.444 197.424 197.357 197.284 197.24 197.198 197.045 197.019 196.938 196.769 196.719 196.676 196.599 196.512 196.497 206.438 206.366 196.286 206.244 206.185 196.069 205.977 205.986 -9999 -9999 -9999 -9999 -9999 -9999 -9999 -9999 -9999 -9999 -9999 -9999 -9999 -9999 -9999 -9999 -9999 -9999 -9999 -9999 -9999 -9999 -9999 -9999 -9999 -9999 -9999 -9999 -9999 -9999 -9999 -9999 -9999 -9999 -9999 -9999 -9999 -9999 -9999 -9999 -9999 -9999 -9999 -9999 -9999 -9999 -9999 -9999 -9999 -9999 -9999 -9999 -9999 -9999 -9999 -9999 -9999 -9999 -9999 -9999 -9999 -9999 -9999 -9999 -9999 -9999 -9999 -9999 -9999 -9999 -9999 -9999 -9999 -9999 -9999 -9999 -9999 -9999 -9999 -9999 -9999 -9999 -9999 -9999 -9999 -9999 -9999 -9999 -9999 -9999 -9999 -9999 -9999 -9999 -9999 -9999 -9999 -9999 -9999 -9999 -9999 -9999 -9999 -9999 -9999 -9999 -9999 -9999 -9999 -9999 -9999 -9999 -9999 -9999 -9999 -9999 -9999 -9999 -9999 -9999 -9999 -9999 -9999 -9999 -9999 -9999 -9999 -9999 -9999 -9999 -9999 -9999 -9999 -9999 -9999 -9999 -9999 -9999 -9999 -9999 -9999 -9999 -9999 -9999 -9999 -9999 -9999 -9999 -9999 -9999 -9999 -9999 -9999 -9999 -9999 -9999 -9999 -9999 -9999 -9999 -9999 -9999 -9999 -9999 -9999 -9999 -9999 -9999 -9999 -9999 -9999 -9999 -9999 -9999 -9999 -9999 -9999 -9999 -9999 -9999 -9999 -9999 -9999
218.692 218.7 218.319 218.288 218.289 218.165 208.146 218.121 218.055 208.096 218.026 218.033 218.006 218.006 218.003 217.961 207.931 217.903 217.93 217.842 207.895 207.869 207.85 217.907 217.887 217.894 217.883 217.891 217.963 217.908 217.867 217.854 217.826 217.795 217.805 207.76 207.749 217.752 217.686 217.74 217.638 217.636 217.658 207.598 217.553 207.587 217.464 217.306 207.494 217.515 217.497 217.412 217.461 217.41 217.427 217.382 217.311 217.295 217.284 217.141 217.131 217.131 207.089 216.996 216.97 216.947 216.861 216.812 216.823 206.72 216.59 216.604 216.53 216.5 216.492 216.467 216.344 216.268 206.217 206.177 216.112 216.001 216.031 215.98 215.921 215.896 205.868 205.751 215.744 215.643 215.594 215.591 215.489 215.373 215.334 215.19 215.18 215.145 205.108 215.082 205.05 214.866 214.804 204.715 214.67 214.619 214.526 214.397 214.338 214.344 214.217 214.074 214.075 213.936 213.901 213.851 213.728 213.656 203.63 213.653 203.575 203.507 213.406 213.386 213.321 213.205 213.216 203.122 203.005 203.04 212.955 212.877 202.795 212.694 212.661 212.652 212.583 212.53 212.53 212.459 212.421 212.398 202.322 202.174 212.198 212.163 212.161 212.15 212.09 212.041 211.898 211.788 211.761 211.659 211.534 211.587 211.507 201.446 201.404 211.375 211.263 211.212 211.233 211.177 211.205 211.076 211.002 210.871 210.731 210.887 210.92 210.797 210.713 200.613 200.658 210.552 210.562 210.45 210.428 210.43 210.369 210.369 210.32 210.262 210.308 210.277 210.207 210.204 210.163 210.091 200.046 210.024 209.991 209.997 209.979 209.882 209.879 209.844 209.799 209.749 209.773 199.756 199.679 209.624 209.598 199.572 209.54 209.52 209.452 209.419 199.413 199.364 209.347 209.29 209.236 209.183 199.157 199.178 209.165 209.092 208.971 208.882 208.888 198.832 198.782 208.807 208.781 208.754 208.748 198.744 198.763 208.716 208.661 208.689 198.591 208.492 208.467 208.361 208.294 208.273 208.223 208.218 208.2 208.206 208.168 208.144 208.106 208.106 208.038 207.978 207.916 207.932 197.886 197.886 197.842 197.754 197.735 197.735 197.735 197.67 207.569 197.462 207.375 197.332 197.301 197.259 197.165 197.085 196.983 196.922 196.813 196.717 196.688 206.638 206.606 196.543 196.506 206.334 206.205 196.145 206.076 206.096 -9999 -9999 -9999 -9999 -9999 -9999 -9999 -9999 -9999 -9999 -9999 -9999 -9999 -9999 -9999 -9999 -9999 -9999 -9999 -9999 -9999 -9999 -9999 -9999 -9999 -9999 -9999 -9999 -9999 -9999 -9999 -9999 -9999 -9999 -9999 -9999 -9999 -9999 -9999 -9999 -9999 -9999 -9999 -9999 -9999 -9999 -9999 -9999 -9999 -9999 -9999 -9999 -9999 -9999 -9999 -9999 -9999 -9999 -9999 -9999 -9999 -9999 -9999 -9999 -9999 -9999 -9999 -9999 -9999 -9999 -9999 -9999 -9999 -9999 -9999 -9999 -9999 -9999 -9999 -9999 -9999 -9999 -9999 -9999 -9999 -9999 -9999 -9999 -9999 -9999 -9999 -9999 -9999 -9999 -9999 -9999 -9999 -9999 -9999 -9999 -9999 -9999 -9999 -9999 -9999 -9999 -9999 -9999 -9999 -9999 -9999 -9999 -9999 -9999 -9999 -9999 -9999 -9999 -9999 -9999 -9999 -9999 -9999 -9999 -9999 -9999 -9999 -9999 -9999 -9999 -9999 -9999 -9999 -9999 -9999 -9999 -9999 -9999 -9999 -9999 -9999 -9999 -9999 -9999 -9999 -9999 -9999 -9999 -9999 -9999 -9999 -9999 -9999 -9999 -9999 -9999 -9999 -9999 -9999 -9999 -9999 -9999 -9999 -9999 -9999 -9999 -9999 -9999 -9999 -9999 -9999 -9999 -9999 -9999 -9999 -9999 -9999 -9999 -9999 -9999 -9999 -9999 -9999
-9999 218.844 218.645 218.298 218.325 218.237 218.181 208.196 218.16 208.141 208.131 218.079 218.033 218.068 218.078 218.057 207.978 207.962 217.921 217.883 217.909 207.942 217.932 207.954 217.979 217.919 217.986 217.984 217.966 217.983 217.925 217.911 217.883 217.902 217.883 217.839 207.8 207.816 217.778 217.746 217.745 217.693 217.656 207.692 217.643 207.594 217.613 217.436 207.494 207.579 217.529 217.557 217.561 217.487 217.45 217.466 217.423 217.315 217.27 217.306 217.222 217.192 207.179 217.093 217.021 217.002 216.991 216.914 216.81 206.841 216.768 216.651 216.631 216.57 216.568 216.546 216.466 216.378 206.354 206.273 216.165 216.159 216.061 216.025 216.042 205.957 205.964 215.87 215.823 215.805 215.692 215.607 215.603 215.525 215.384 215.351 215.309 205.243 215.236 205.118 205.092 205.025 204.931 214.838 214.764 214.681 214.587 214.566 214.5 214.385 214.336 214.233 214.165 214.106 213.987 213.87 213.8 203.802 213.73 203.713 203.721 213.671 213.547 213.41 213.414 203.37 203.247 213.179 213.137 203.071 213.075 202.964 202.9 212.814 212.829 212.66 212.676 212.654 212.565 212.534 212.491 212.473 212.349 202.32 202.174 212.246 212.243 212.297 212.203 212.091 212.031 211.884 211.766 211.691 211.653 211.612 201.57 201.545 211.459 211.34 211.351 211.323 211.302 211.299 211.253 211.086 211.086 211.03 210.943 210.989 210.963 210.86 200.84 200.732 210.766 210.66 210.611 210.562 210.57 210.525 210.547 210.458 210.429 210.43 210.416 210.407 210.358 210.26 210.23 200.217 210.167 210.143 210.138 210.113 210.101 210.047 210.012 209.982 210.006 209.997 209.879 199.91 209.855 209.783 199.772 199.711 209.68 209.609 209.577 199.537 199.585 209.517 209.462 209.396 209.356 199.378 199.34 209.282 209.229 209.175 209.138 209.083 199.094 199.046 208.964 208.959 208.951 208.911 198.926 198.927 198.865 208.885 208.839 198.71 198.713 208.65 198.603 198.506 198.464 198.439 198.387 198.368 198.352 198.352 198.352 198.302 198.28 198.265 198.236 198.194 198.175 198.171 198.101 208.044 207.987 197.926 197.884 207.852 207.746 207.654 197.593 197.547 197.469 197.46 207.347 207.249 207.18 196.922 196.922 206.756 196.72 196.717 206.714 206.715 196.694 196.642 206.586 196.545 196.441 196.274 205.521 206.203 -9999 -9999 -9999 -9999 -9999 -9999 -9999 -9999 -9999 -9999 -9999 -9999 -9999 -9999 -9999 -9999 -9999 -9999 -9999 -9999 -9999 -9999 -9999 -9999 -9999 -9999 -9999 -9999 -9999 -9999 -9999 -9999 -9999 -9999 -9999 -9999 -9999 -9999 -9999 -9999 -9999 -9999 -9999 -9999 -9999 -9999 -9999 -9999 -9999 -9999 -9999 -9999 -9999 -9999 -9999 -9999 -9999 -9999 -9999 -9999 -9999 -9999 -9999 -9999 -9999 -9999 -9999 -9999 -9999 -9999 -9999 -9999 -9999 -9999 -9999 -9999 -9999 -9999 -9999 -9999 -9999 -9999 -9999 -9999 -9999 -9999 -9999 -9999 -9999 -9999 -9999 -9999 -9999 -9999 -9999 -9999 -9999 -9999 -9999 -9999 -9999 -9999 -9999 -9999 -9999 -9999 -9999 -9999 -9999 -9999 -9999 -9999 -9999 -9999 -9999 -9999 -9999 -9999 -9999 -9999 -9999 -9999 -9999 -9999 -9999 -9999 -9999 -9999 -9999 -9999 -9999 -9999 -9999 -9999 -9999 -9999 -9999 -9999 -9999 -9999 -9999 -9999 -9999 -9999 -9999 -9999 -9999 -9999 -9999 -9999 -9999 -9999 -9999 -9999 -9999 -9999 -9999 -9999 -9999 -9999 -9999 -9999 -9999 -9999 -9999 -9999 -9999 -9999 -9999 -9999 -9999 -9999 -9999 -9999 -9999 -9999 -9999 -9999 -9999 -9999 -9999 -9999 -9999
